# .PCD v0.7 - Point Cloud Data file format
VERSION 0.7
FIELDS x y z rgb
SIZE 4 4 4 4
TYPE F F F U
COUNT 1 1 1 1
WIDTH 1051
HEIGHT 1
VIEWPOINT 0 0 0 1 0 0 0
POINTS 1051
DATA ascii
0.011919561 0.0013608679 0.064616643 6579300
0.011909746 0.0014391874 0.072106846 6579300
0.011922694 0.0013358695 0.076994412 6579300
0.011973067 0.00075846538 0.076182656 6579300
0.011971134 0.0007842746 0.081439152 6579300
0.011966247 0.00084948284 0.070189819 6579300
0.011952706 0.0010302019 0.083795369 6579300
0.011963717 0.00088324887 0.074447885 6579300
0.01194747 0.0011000681 0.082847916 6579300
0.011980002 0.00066591805 0.067165717 6579300
0.011948869 0.001081398 0.082189575 6579300
0.011984332 0.00060813583 0.071197063 6579300
0.011978001 0.00069262291 0.078225873 6579300
0.011891697 0.0015832124 0.07072062 6579300
0.011914389 0.001402133 0.080621742 6579300
0.011871208 0.001746713 0.07990139 6579300
0.011905858 0.0014702113 0.075950727 6579300
0.011868381 0.0017692634 0.068068303 6579300
0.011897137 0.0015397957 0.072782159 6579300
0.011868238 0.0017704101 0.069342382 6579300
0.011918173 0.0013719385 0.077824079 6579300
0.011872742 0.0017344607 0.082242012 6579300
0.011890215 0.0015950359 0.083354518 6579300
0.011896973 0.0015411087 0.078418337 6579300
0.011766318 0.0023536594 0.067499436 6579300
0.011832196 0.0019800463 0.061632015 6579300
0.011807099 0.0021223782 0.07037688 6579300
0.011825077 0.0020204203 0.06389717 6579300
0.01185584 0.0018459553 0.060493238 6579300
0.011776987 0.0022931534 0.071165323 6579300
0.011790029 0.002219188 0.081796899 6579300
0.011830137 0.0019917244 0.073237404 6579300
0.011845332 0.0019055501 0.07493186 6579300
0.011832126 0.0019804428 0.074237809 6579300
0.01179006 0.0022190111 0.081158057 6579300
0.011850861 0.0018741913 0.079233505 6579300
0.011827212 0.0020083117 0.076421514 6579300
0.011822232 0.0020365573 0.075590722 6579300
0.011840677 0.0019319493 0.066216953 6579300
0.011843526 0.0019157954 0.066998385 6579300
0.011812305 0.0020928564 0.082861722 6579300
0.011845373 0.0019053193 0.068685204 6579300
0.011862669 0.001807226 0.0654402 6579300
0.011852283 0.00186613 0.063222952 6579300
0.011726896 0.0025318605 0.064383715 6579300
0.011691299 0.0026878233 0.068710439 6579300
0.011639087 0.0029165854 0.072478212 6579300
0.011633073 0.0029429342 0.08182916 6579300
0.011663064 0.0028115304 0.070731081 6579300
0.011725835 0.0025365141 0.063434653 6579300
0.01165766 0.0028352095 0.060950227 6579300
0.011638104 0.0029208935 0.079774432 6579300
0.011685563 0.0027129571 0.07555756 6579300
0.011693496 0.0026781969 0.073168539 6579300
0.011705003 0.0026277828 0.071916454 6579300
0.011717992 0.0025708729 0.078192033 6579300
0.011721155 0.0025570164 0.069819823 6579300
0.011680366 0.0027357307 0.080610909 6579300
0.011752048 0.0024216645 0.065399632 6579300
0.011704298 0.0026308731 0.073871545 6579300
0.011753866 0.0024136952 0.062095746 6579300
0.011734447 0.0024987799 0.066793405 6579300
0.011761396 0.0023807057 0.077381767 6579300
0.011481535 0.0034849423 0.072796054 6579300
0.011606326 0.0030414229 0.061979014 6579300
0.011482948 0.0034799199 0.071141414 6579300
0.011470252 0.0035250429 0.065118372 6579300
0.011521782 0.0033419004 0.060610779 6579300
0.011487883 0.0034623831 0.068036415 6579300
0.01157669 0.0031467525 0.062928706 6579300
0.011533177 0.0033014033 0.064517386 6579300
0.011483079 0.0034794542 0.079279602 6579300
0.01150331 0.0034075505 0.078507319 6579300
0.01135317 0.0038754751 0.06135245 6579300
0.011303303 0.0040239007 0.060762405 6579300
0.011414341 0.0036934095 0.076542251 6579300
0.011352119 0.0038786058 0.063381553 6579300
0.011399399 0.0037378832 0.069074467 6579300
0.011416907 0.0036857701 0.070538104 6579300
0.01144028 0.003616204 0.063977078 6579300
0.011295938 0.0040458213 0.062449429 6579300
0.011378787 0.0037992294 0.066845648 6579300
0.011428744 0.0036505417 0.066234112 6579300
0.011390589 0.0037641029 0.072187178 6579300
0.011599309 0.0030663649 0.066413321 6579300
0.011615832 0.0030076357 0.076962382 6579300
0.011589349 0.0031017605 0.070086002 6579300
0.011556891 0.00321712 0.074890584 6579300
0.011532334 0.0033043984 0.077779151 6579300
0.0115645 0.0031900774 0.076068304 6579300
0.011618 0.0029999339 0.067524001 6579300
0.011573695 0.0031573996 0.082624406 6579300
0.0115401 0.0032767956 0.07406041 6579300
0.011502681 0.0034097848 0.08010602 6579300
0.011576817 0.0031463008 0.083298407 6579300
0.011365374 0.0038391559 0.083127052 6579300
0.011351041 0.0038818142 0.081660971 6579300
0.011321171 0.0039707175 0.075925864 6579300
0.011341602 0.0039099101 0.083963707 6579300
0.011355718 0.0038678953 0.073414981 6579300
0.011372183 0.0038188889 0.082525849 6579300
0.011390782 0.0037635311 0.07449957 6579300
0.011366564 0.0038356124 0.08061932 6579300
0.011284408 0.0040801382 0.079047762 6579300
0.011216301 0.0042571421 0.064773709 6579300
0.011075429 0.0046160733 0.06265451 6579300
0.011209047 0.0042756228 0.06402088 6579300
0.011101502 0.0045496407 0.075739078 6579300
0.011134556 0.0044654207 0.071590707 6579300
0.0111326 0.0044704061 0.061760314 6579300
0.011062454 0.004649133 0.067952067 6579300
0.011106252 0.0045375372 0.063437171 6579300
0.01117675 0.0043579144 0.066531651 6579300
0.011206791 0.0042813723 0.070907004 6579300
0.011173225 0.0043668961 0.076400049 6579300
0.011157982 0.0044057323 0.07512302 6579300
0.011213433 0.0042644483 0.068592995 6579300
0.011265976 0.0041305716 0.069997244 6579300
0.011186589 0.0043328456 0.077212922 6579300
0.011224455 0.0042363633 0.079988606 6579300
0.01125895 0.0041484754 0.065371655 6579300
0.011175522 0.0043610446 0.078062288 6579300
0.010891665 0.0050292234 0.073273808 6579300
0.010911369 0.0049855541 0.062078349 6579300
0.010879999 0.0050550783 0.065266974 6579300
0.011006685 0.004774305 0.060745623 6579300
0.010953954 0.0048911721 0.067285746 6579300
0.01094129 0.0049192393 0.066079944 6579300
0.010833226 0.0051587415 0.064395547 6579300
0.010882356 0.0050498531 0.076407202 6579300
0.011051574 0.0046748174 0.08114294 6579300
0.010981175 0.0048308419 0.080541328 6579300
0.010965356 0.0048659034 0.07469096 6579300
0.011007567 0.0047723502 0.070502177 6579300
0.010959011 0.004879965 0.071149692 6579300
0.010940607 0.0049207537 0.077758208 6579300
0.011030619 0.0047212597 0.072500899 6579300
0.011040368 0.0046996525 0.083278589 6579300
0.011029663 0.0047233785 0.069818623 6579300
0.010978354 0.0048370943 0.082241736 6579300
0.011050168 0.0046779336 0.07931003 6579300
0.011002977 0.0047825212 0.068941243 6579300
0.01101744 0.0047504683 0.074000329 6579300
0.010925851 0.004953457 0.078595765 6579300
0.010626203 0.0055682897 0.063250095 6579300
0.010538829 0.0057387175 0.079227798 6579300
0.010600924 0.005617599 0.069615558 6579300
0.010676871 0.0054694586 0.060513318 6579300
0.010676485 0.0054702139 0.071674801 6579300
0.01063218 0.0055566318 0.065487891 6579300
0.010596426 0.0056263707 0.066459805 6579300
0.010664084 0.0054944013 0.072316907 6579300
0.0106277 0.0055653704 0.073939241 6579300
0.010711091 0.0054027131 0.082150303 6579300
0.010742083 0.00534226 0.067719609 6579300
0.010731066 0.0053637493 0.077011034 6579300
0.010608541 0.0056027416 0.078583844 6579300
0.010671137 0.0054806438 0.080740727 6579300
0.010791434 0.005245998 0.075416967 6579300
0.010765337 0.0052969009 0.070239983 6579300
0.010555946 0.0057053301 0.083168156 6579300
0.01074662 0.0053334106 0.068489723 6579300
0.010370485 0.006030336 0.077059008 6579300
0.010473663 0.005851625 0.06710504 6579300
0.010501537 0.0058033471 0.064476542 6579300
0.010392508 0.0059921895 0.076045014 6579300
0.01042384 0.0059379204 0.082405508 6579300
0.010414153 0.0059546987 0.070745073 6579300
0.010434063 0.0059202136 0.078091353 6579300
0.010480033 0.0058405921 0.074575923 6579300
0.010250558 0.0062380536 0.083630599 6579300
0.010402158 0.0059754755 0.0799606 6579300
0.010472955 0.0058528506 0.081676126 6579300
0.010516415 0.005777576 0.062325668 6579300
0.010254818 0.0062306756 0.067822471 6579300
0.010292265 0.0061658155 0.060466129 6579300
0.01045292 0.0058875531 0.063731566 6579300
0.010317238 0.0061225607 0.073103666 6579300
0.01026845 0.0062070643 0.065948702 6579300
0.01037201 0.0060276929 0.06850782 6579300
0.010351274 0.0060636085 0.070021853 6579300
0.010321043 0.0061159697 0.075145312 6579300
0.010277357 0.006191636 0.065122329 6579300
0.010307201 0.0061399452 0.06138197 6579300
0.010169326 0.0063658576 0.081282891 6579300
0.01023735 0.0062605366 0.071280606 6579300
0.010153892 0.0063897553 0.08200413 6579300
0.010213325 0.0062977355 0.066642806 6579300
0.010206131 0.0063088723 0.062531717 6579300
0.010154683 0.0063885297 0.073885225 6579300
0.01016794 0.0063680047 0.07194455 6579300
0.01009087 0.0064873323 0.078011736 6579300
0.010193121 0.0063290177 0.082990706 6579300
0.010139837 0.0064115166 0.080415182 6579300
0.010062733 0.0065308968 0.076024972 6579300
0.010004087 0.0066216965 0.063072138 6579300
0.0099511342 0.0067036841 0.072649859 6579300
0.009971383 0.006672333 0.060705017 6579300
0.0099855633 0.0066503775 0.077338867 6579300
0.010002237 0.0066245622 0.068933472 6579300
0.0099469405 0.0067101768 0.07867752 6579300
0.010149386 0.0063967314 0.064362191 6579300
0.0098667247 0.0068267994 0.063704543 6579300
0.0099088103 0.0067682615 0.069615036 6579300
0.0098855691 0.0068005882 0.066020958 6579300
0.0097363936 0.007008079 0.08117146 6579300
0.0098086018 0.0069076438 0.070526324 6579300
0.0096652899 0.0071069784 0.077966534 6579300
0.0098067075 0.0069102775 0.076695621 6579300
0.0097366953 0.0070076585 0.08052738 6579300
0.0097656464 0.0069673914 0.079563469 6579300
0.0098226098 0.0068881591 0.081846461 6579300
0.0097687831 0.0069630281 0.071855932 6579300
0.0096820304 0.0070836935 0.083502956 6579300
0.0099019716 0.0067777736 0.074961297 6579300
0.0095733898 0.0072348034 0.071193554 6579300
0.0098096486 0.0069061872 0.064995974 6579300
0.0096785305 0.0070885615 0.066871375 6579300
0.0095833959 0.0072208862 0.069170639 6579300
0.0096975518 0.007062105 0.061620131 6579300
0.009705008 0.0070517333 0.074257329 6579300
0.0098287668 0.0068795946 0.062337764 6579300
0.0097166998 0.007035472 0.073596761 6579300
0.0093485704 0.0075177867 0.080196224 6579300
0.0094125075 0.0074376119 0.070371173 6579300
0.0094247721 0.007422233 0.078717373 6579300
0.0093147205 0.0075602322 0.081313789 6579300
0.0093136495 0.0075615752 0.077421382 6579300
0.0095432708 0.0072736396 0.064302906 6579300
0.0093578408 0.007506161 0.083996691 6579300
0.009498436 0.0073298607 0.082754962 6579300
0.0095237317 0.0072981417 0.074842811 6579300
0.0094960714 0.007332826 0.076325908 6579300
0.0095010661 0.0073265634 0.068187922 6579300
0.0093684569 0.0074928496 0.061334968 6579300
0.0094110668 0.0074394187 0.066421084 6579300
0.0094515998 0.0073885918 0.06035294 6579300
0.0094164871 0.0074326214 0.065586068 6579300
0.0093997689 0.007453586 0.063591905 6579300
0.0092402548 0.0076536098 0.07536675 6579300
0.0093803331 0.0074779564 0.06759087 6579300
0.0091972761 0.0077075027 0.070901804 6579300
0.009195108 0.0077102212 0.078216828 6579300
0.0091666682 0.0077427593 0.072463736 6579300
0.0091655692 0.0077440045 0.064593948 6579300
0.0091764042 0.0077317264 0.061926253 6579300
0.0090527246 0.0078718727 0.073850729 6579300
0.0088605229 0.0080896644 0.081016362 6579300
0.0089475587 0.0079910401 0.07981918 6579300
0.0090771029 0.0078442497 0.074653529 6579300
0.0089217005 0.0080203414 0.082078695 6579300
0.0089282133 0.0080129616 0.076662824 6579300
0.0090299677 0.0078976592 0.06551908 6579300
0.0088204537 0.0081350682 0.066699617 6579300
0.008809288 0.0081477212 0.070495136 6579300
0.0088660149 0.0080834413 0.067736521 6579300
0.0089421459 0.0079971738 0.064088315 6579300
0.0090340786 0.0078930017 0.069255337 6579300
0.0090491297 0.0078759464 0.06834998 6579300
0.0091217533 0.0077936542 0.062632799 6579300
0.0083964681 0.0085723307 0.08395505 6579300
0.0087748077 0.0081844386 0.075356476 6579300
0.008435525 0.0085322885 0.082333632 6579300
0.0085313823 0.0084340097 0.081740282 6579300
0.0086966967 0.0082645211 0.082914203 6579300
0.0087711541 0.0081881834 0.073141783 6579300
0.0086651444 0.0082968697 0.068645149 6579300
0.0087566404 0.0082030641 0.07123477 6579300
0.0087869056 0.0081720352 0.077258207 6579300
0.0087375361 0.0082226507 0.076094992 6579300
0.008786696 0.0081722494 0.078633472 6579300
0.0085113058 0.0084545938 0.074781209 6579300
0.0084209824 0.008547198 0.067908645 6579300
0.0084018037 0.0085668601 0.069635734 6579300
0.0085025076 0.0084636137 0.064209342 6579300
0.008399426 0.0085692983 0.072773293 6579300
0.0085020075 0.0084641268 0.062620409 6579300
0.0087420242 0.0082180491 0.06070913 6579300
0.0086180335 0.0083451709 0.064815454 6579300
0.00865719 0.0083050253 0.061890099 6579300
0.0082589108 0.0087016821 0.078051619 6579300
0.0081929509 0.008762884 0.083098091 6579300
0.0083624143 0.0086056441 0.073757209 6579300
0.0083444593 0.0086223045 0.063394114 6579300
0.0082830815 0.0086792549 0.081012569 6579300
0.0083267568 0.0086387293 0.065782718 6579300
0.0082684672 0.008692815 0.067170471 6579300
0.0082693631 0.0086919842 0.08025296 6579300
0.0081385626 0.0088133495 0.074470669 6579300
0.0083236741 0.0086415904 0.072130553 6579300
0.0083418246 0.0086247493 0.079574838 6579300
0.0081688464 0.0087852497 0.0614307 6579300
0.0080517037 0.0088939425 0.07084731 6579300
0.0080850795 0.0088629741 0.075621605 6579300
0.0080587128 0.008887439 0.065201849 6579300
0.0080342954 0.0089100953 0.062687986 6579300
0.0080404533 0.0089043817 0.068386286 6579300
0.0080033187 0.0089388369 0.077249385 6579300
0.0081775934 0.0087771341 0.060517315 6579300
0.0079124635 0.009020674 0.07175868 6579300
0.0077498956 0.0091570849 0.063793205 6579300
0.0078310622 0.0090889782 0.067481056 6579300
0.0079356944 0.0090011815 0.079223588 6579300
0.0078352708 0.0090854457 0.072417289 6579300
0.0078173159 0.0091005117 0.076196082 6579300
0.0077169058 0.0091847666 0.070179217 6579300
0.0077358442 0.0091688745 0.062100567 6579300
0.0078317272 0.0090884194 0.066762418 6579300
0.0077156215 0.0091858432 0.065672874 6579300
0.007869577 0.0090566603 0.082003079 6579300
0.0078590829 0.009065466 0.083686315 6579300
0.0076042921 0.0092792604 0.080337226 6579300
0.0075897994 0.0092914207 0.083060861 6579300
0.0076522501 0.0092390189 0.0695066 6579300
0.0075856065 0.0092949392 0.071279414 6579300
0.0075793155 0.009300218 0.068661444 6579300
0.00759333 0.0092884582 0.074486293 6579300
0.0076576825 0.0092344601 0.081275366 6579300
0.0077042514 0.0091953846 0.075238071 6579300
0.0075543122 0.0093211979 0.078189835 6579300
0.0075027961 0.0093644252 0.073558584 6579300
0.0071997885 0.0095956512 0.07508821 6579300
0.0074217459 0.009427526 0.066251598 6579300
0.0073444215 0.0094860969 0.072370641 6579300
0.0071832463 0.0096081821 0.083504356 6579300
0.0070708022 0.0096933544 0.081433088 6579300
0.0073854271 0.0094550364 0.077025875 6579300
0.0074213063 0.0094278585 0.063174441 6579300
0.007457322 0.0094005782 0.079650208 6579300
0.0070860549 0.0096818013 0.080283083 6579300
0.0070818365 0.0096849967 0.082754113 6579300
0.0070346599 0.0097207315 0.071150877 6579300
0.0070789671 0.0096871704 0.076161727 6579300
0.0073093069 0.0095126946 0.06797602 6579300
0.0073619778 0.0094727986 0.06454464 6579300
0.0070166276 0.0097343903 0.074017771 6579300
0.0072773355 0.0095369117 0.065320976 6579300
0.0073329108 0.009494816 0.061444424 6579300
0.0071315146 0.0096473666 0.073170476 6579300
0.0071994169 0.0095959334 0.067311898 6579300
0.0072109741 0.0095871789 0.060679119 6579300
0.0068924124 0.0098199639 0.062999979 6579300
0.0067880889 0.0098910909 0.071903318 6579300
0.0067012291 0.00995031 0.065507993 6579300
0.0069589266 0.009774616 0.070388898 6579300
0.0069031608 0.0098126363 0.063928597 6579300
0.0067199552 0.0099375434 0.062337458 6579300
0.0068027638 0.0098810857 0.067869499 6579300
0.0070001651 0.0097465003 0.07936006 6579300
0.0070047807 0.0097433534 0.078605428 6579300
0.0066488492 0.0099860225 0.077228993 6579300
0.0065647564 0.010043356 0.083461456 6579300
0.006628416 0.0099999532 0.075042762 6579300
0.0065858471 0.010028976 0.07610219 6579300
0.0065655513 0.010042814 0.06639199 6579300
0.0066868323 0.0099601261 0.068891145 6579300
0.0065125064 0.010078979 0.072467126 6579300
0.006787763 0.0098913126 0.080857508 6579300
0.0066703442 0.0099713672 0.081895195 6579300
0.0063191992 0.010197244 0.070189141 6579300
0.0061083385 0.010326097 0.082056671 6579300
0.006435032 0.01012646 0.064359128 6579300
0.006399713 0.010148043 0.082687192 6579300
0.0062889885 0.010215704 0.074257404 6579300
0.0064936108 0.010090664 0.079024225 6579300
0.0060373857 0.010369455 0.083249301 6579300
0.0062864199 0.010217275 0.077786386 6579300
0.0065066768 0.010082679 0.069555141 6579300
0.0062463642 0.010241752 0.080537409 6579300
0.0061188438 0.010319677 0.071363576 6579300
0.0063815224 0.010159159 0.06290707 6579300
0.0062606027 0.01023305 0.067218296 6579300
0.0061455308 0.010303369 0.067800462 6579300
0.0061759045 0.010284808 0.065061487 6579300
0.0060324073 0.010372496 0.060628422 6579300
0.006356373 0.010174527 0.063569121 6579300
0.0062885932 0.010215946 0.061806031 6579300
0.0055446252 0.010640286 0.081615657 6579300
0.0059359265 0.010427193 0.076985739 6579300
0.005991302 0.010397037 0.079527065 6579300
0.0059386031 0.010425735 0.068500541 6579300
0.0058697527 0.010463229 0.075432159 6579300
0.0059568109 0.010415819 0.065765485 6579300
0.005927173 0.01043196 0.073746428 6579300
0.005886029 0.010454366 0.07888256 6579300
0.0057870401 0.010508273 0.072987802 6579300
0.0059871245 0.010399312 0.076098591 6579300
0.0055804076 0.0106208 0.082284369 6579300
0.0057270168 0.01054096 0.078138486 6579300
0.0057437811 0.010531831 0.069869585 6579300
0.0058568534 0.010470254 0.062548093 6579300
0.0056623695 0.010576165 0.061617251 6579300
0.0056198286 0.010599332 0.066389978 6579300
0.0056268023 0.010595535 0.070471942 6579300
0.0054787784 0.010676146 0.060863636 6579300
0.005679233 0.010566982 0.072206475 6579300
0.0055286032 0.010649011 0.064857677 6579300
0.0058183726 0.01049121 0.063223884 6579300
0.0055920957 0.010614435 0.067058362 6579300
0.0054863286 0.010672034 0.079774164 6579300
0.0056473054 0.010584369 0.074528076 6579300
0.0049748016 0.010919116 0.065041095 6579300
0.0050206697 0.010897027 0.061340567 6579300
0.0051826374 0.010819027 0.07093446 6579300
0.0050497456 0.010883025 0.076229453 6579300
0.0051977555 0.010811747 0.06571763 6579300
0.0050649079 0.010875723 0.066662148 6579300
0.0051828828 0.010818909 0.062230874 6579300
0.0051555242 0.010832084 0.070056699 6579300
0.0050476235 0.010884047 0.071888618 6579300
0.0052372566 0.010792724 0.072596721 6579300
0.0052067162 0.010807431 0.078983545 6579300
0.005420424 0.010704516 0.069129698 6579300
0.0052712797 0.010776339 0.080652133 6579300
0.0054285321 0.01070061 0.064041011 6579300
0.0052730511 0.010775486 0.073854387 6579300
0.0050468026 0.010884442 0.082686968 6579300
0.0051509058 0.010834308 0.075083181 6579300
0.0045233448 0.011111781 0.075401418 6579300
0.0049069989 0.010950061 0.060589042 6579300
0.0046268483 0.011068151 0.069557659 6579300
0.0044894558 0.011126066 0.070648573 6579300
0.0047948849 0.01099732 0.064202636 6579300
0.0044026277 0.011162667 0.068820722 6579300
0.0045171534 0.011114391 0.072855964 6579300
0.0044991751 0.011121969 0.066449836 6579300
0.0044784853 0.011130691 0.0736866 6579300
0.004430566 0.011150889 0.077375174 6579300
0.0043856353 0.011169829 0.076467022 6579300
0.0044503901 0.011142533 0.083195612 6579300
0.0046075662 0.011076279 0.081210308 6579300
0.0047748284 0.011005774 0.078121416 6579300
0.0049209232 0.010944191 0.063047566 6579300
0.0048302575 0.010982409 0.076896243 6579300
0.0049325218 0.010939302 0.068077691 6579300
0.0049256482 0.010942199 0.079554051 6579300
0.0048612673 0.010969338 0.074280851 6579300
0.0045344182 0.011107113 0.080208428 6579300
0.0045826165 0.011086796 0.078710884 6579300
0.0042857169 0.011206286 0.062960349 6579300
0.0042105075 0.011233661 0.063980497 6579300
0.0039760894 0.011318986 0.070168681 6579300
0.0039730933 0.011320076 0.069310553 6579300
0.0039560674 0.011326274 0.067550719 6579300
0.0041885711 0.011241646 0.062123947 6579300
0.0039012092 0.011346241 0.078969538 6579300
0.0038406339 0.01136829 0.065965183 6579300
0.0039052081 0.011344786 0.07266368 6579300
0.0039480808 0.011329181 0.061133631 6579300
0.0041230577 0.011265492 0.065161042 6579300
0.0037543089 0.01139596 0.073377222 6579300
0.0038052963 0.011380233 0.075026795 6579300
0.0036564667 0.011426141 0.061762478 6579300
0.00355654 0.011456963 0.066546321 6579300
0.0033824849 0.011510651 0.060032599 6579300
0.0035843493 0.011448385 0.070793726 6579300
0.0035024213 0.011473657 0.063514978 6579300
0.003703482 0.011411638 0.06256406 6579300
0.003726369 0.011404579 0.068170764 6579300
0.0037515531 0.01139681 0.079624362 6579300
0.0042043491 0.011235903 0.080710299 6579300
0.004215193 0.011231956 0.074325874 6579300
0.0041131186 0.011269109 0.07830441 6579300
0.0041707875 0.011248119 0.081723087 6579300
0.0043698167 0.011175675 0.071692206 6579300
0.0034883232 0.011478005 0.076762781 6579300
0.0033118653 0.011532434 0.081671894 6579300
0.0034418188 0.011492349 0.07229954 6579300
0.0032886209 0.011539604 0.064330831 6579300
0.003428885 0.011496339 0.073937967 6579300
0.0034710683 0.011483327 0.078217231 6579300
0.0033956743 0.011506583 0.083011366 6579300
0.0032609261 0.011548147 0.067175344 6579300
0.0032674773 0.011546126 0.079992078 6579300
0.0034390432 0.011493205 0.069719046 6579300
0.0029993737 0.011615328 0.068543427 6579300
0.0030698923 0.011597372 0.060659513 6579300
0.0028055576 0.011664677 0.069243684 6579300
0.002713053 0.011688231 0.062501095 6579300
0.0030929339 0.011591504 0.061943732 6579300
0.0028247586 0.011659789 0.06354665 6579300
0.0026702876 0.011699121 0.067395277 6579300
0.0027174545 0.011687111 0.078782186 6579300
0.0028310504 0.011658186 0.076742537 6579300
0.0029958175 0.011616233 0.06516616 6579300
0.0027848862 0.011669941 0.065817513 6579300
0.0030560791 0.011600888 0.079362489 6579300
0.0031321687 0.011581515 0.077639334 6579300
0.0031332856 0.01158123 0.071726352 6579300
0.0027958835 0.011667141 0.081025332 6579300
0.0029516283 0.011627484 0.072830915 6579300
0.0031856804 0.01156789 0.082354158 6579300
0.0030275949 0.011608141 0.074626587 6579300
0.0030223157 0.011609485 0.070463486 6579300
0.0027302655 0.011683849 0.082844853 6579300
0.0032055618 0.011562827 0.075283557 6579300
0.0030704325 0.011597234 0.07616578 6579300
0.0022302342 0.011788082 0.069911733 6579300
0.0021246716 0.011809423 0.081409685 6579300
0.0023627721 0.011761289 0.061430823 6579300
0.0024164512 0.011750437 0.064905345 6579300
0.0020947708 0.011815468 0.063640237 6579300
0.0025505677 0.011723325 0.079824351 6579300
0.0025816562 0.01171704 0.078036681 6579300
0.0022663453 0.011780783 0.079252608 6579300
0.002524887 0.011728516 0.077351853 6579300
0.0023169259 0.011770558 0.076159924 6579300
0.0024789553 0.011737802 0.07095775 6579300
0.0024673052 0.011740156 0.072201662 6579300
0.0026305183 0.011707162 0.073934972 6579300
0.0023235448 0.011769219 0.074501023 6579300
0.002631902 0.011706882 0.064307988 6579300
0.0015824876 0.011893249 0.074859209 6579300
0.0017499611 0.011868006 0.06509164 6579300
0.0016416118 0.011884337 0.07257399 6579300
0.0017466074 0.011868511 0.071152136 6579300
0.001551591 0.011897907 0.063148119 6579300
0.0015410287 0.011899498 0.069979124 6579300
0.0020610567 0.011821114 0.060571894 6579300
0.0015199457 0.011902676 0.061694182 6579300
0.0015813643 0.011893419 0.076123223 6579300
0.0018757215 0.01184905 0.078711092 6579300
0.0019468993 0.011838322 0.078035012 6579300
0.0018271547 0.011856371 0.075500965 6579300
0.0019806309 0.011833237 0.073183469 6579300
0.0020679457 0.011820076 0.066787958 6579300
0.0018763336 0.011848958 0.083195843 6579300
0.0017006451 0.011875439 0.077335335 6579300
0.0017789229 0.011863641 0.073891208 6579300
0.001796957 0.011860922 0.080090135 6579300
0.0019576342 0.011836704 0.080666363 6579300
0.0020024495 0.011829949 0.064275779 6579300
0.0020565297 0.011821797 0.066148154 6579300
0.0020552301 0.011821993 0.0625012 6579300
0.0018916184 0.011846654 0.068533808 6579300
0.0019767375 0.011833824 0.067881212 6579300
0.0018178038 0.01185778 0.082119226 6579300
0.0019448239 0.011838634 0.069274276 6579300
0.0019371447 0.011839792 0.071737528 6579300
0.0010304812 0.011953068 0.075311087 6579300
0.0011840082 0.011937704 0.060990319 6579300
0.00092033454 0.011964091 0.06554994 6579300
0.0010161664 0.0119545 0.063635387 6579300
0.0011279902 0.01194331 0.071460851 6579300
0.00093091954 0.011963032 0.074516289 6579300
0.0011116335 0.011944947 0.073565982 6579300
0.0011331001 0.011942798 0.060099799 6579300
0.0011815483 0.011937951 0.064426519 6579300
0.0012637443 0.011929724 0.06645304 6579300
0.00078189571 0.011972181 0.072078511 6579300
0.0005342504 0.011984539 0.068939194 6579300
0.00076436042 0.011973057 0.069624953 6579300
0.00049195229 0.011986651 0.061531037 6579300
0.00074787653 0.011973879 0.063036032 6579300
0.0006371364 0.011979406 0.060662076 6579300
0.00084265572 0.01196915 0.06235012 6579300
0.00080127176 0.011971215 0.075986154 6579300
0.00086858304 0.011967856 0.067126878 6579300
0.00081168709 0.011970695 0.078598939 6579300
0.00073119526 0.011974712 0.076660529 6579300
0.0013759269 0.011918498 0.082844533 6579300
0.0013572716 0.011920365 0.067655183 6579300
0.0013602002 0.011920072 0.079371862 6579300
0.0010951555 0.011946596 0.080426499 6579300
0.0014051573 0.011915573 0.083671853 6579300
0.00096946623 0.011959175 0.08132343 6579300
0.0012962447 0.011926472 0.078175053 6579300
0.00022131967 0.01199627 0.078227744 6579300
0.00025399381 0.01199627 0.081106938 6579300
0.00022680119 0.01199627 0.063401729 6579300
0.00024407198 0.01199627 0.067533709 6579300
-7.2749099e-05 0.01199627 0.064333111 6579300
0.00024782133 0.01199627 0.064886682 6579300
0.00014553382 0.01199627 0.075282119 6579300
0.00017339068 0.01199627 0.065951109 6579300
0.00033959796 0.011994253 0.072639465 6579300
0.00037497887 0.011992487 0.06820067 6579300
0.00034182565 0.011994141 0.083117791 6579300
0.00036948142 0.011992762 0.081715658 6579300
0.00035527596 0.011993471 0.079023093 6579300
0.00078968593 0.011971793 0.08253368 6579300
0.00043871568 0.011989307 0.073380545 6579300
0.00045125055 0.011988681 0.070655338 6579300
0.00058936304 0.011981789 0.077499598 6579300
0.00019945667 0.01199627 0.080297239 6579300
-0.00016727633 0.01199627 0.072277829 6579300
-0.00011186771 0.01199627 0.07165724 6579300
-0.00017634949 0.01199627 0.077557445 6579300
-0.00021816824 0.01199627 0.068677843 6579300
-0.00025354754 0.01199627 0.082886152 6579300
0.00018676251 0.01199627 0.082398586 6579300
-6.6788212e-05 0.01199627 0.074630149 6579300
7.4991658e-05 0.01199627 0.076566033 6579300
-0.00028375289 0.01199627 0.060684137 6579300
-0.00016505335 0.01199627 0.069852851 6579300
-1.3552557e-05 0.01199627 0.073938407 6579300
-0.0007514708 0.0119737 0.076233715 6579300
-0.00074095244 0.011974225 0.071524136 6579300
-0.00042745631 0.011989868 0.062524296 6579300
-0.00077029562 0.011972761 0.074331723 6579300
-0.00066642085 0.011977945 0.063432798 6579300
-0.00071455352 0.011975543 0.072874717 6579300
-0.00074835436 0.011973856 0.064981416 6579300
-0.00065321726 0.011978603 0.061810266 6579300
-0.00081317464 0.011970622 0.064324409 6579300
-0.00038441288 0.011992017 0.067435592 6579300
-0.00054078002 0.011984213 0.073541209 6579300
-0.00033219828 0.011994622 0.081876688 6579300
-0.00039258206 0.011991609 0.065661155 6579300
-0.00054964353 0.011983772 0.070806071 6579300
-0.00070154376 0.011976192 0.078965664 6579300
-0.00066943472 0.011977794 0.079810239 6579300
-0.00046513451 0.011987989 0.083726741 6579300
-0.00061391486 0.011980564 0.075031132 6579300
-0.00045051615 0.011988718 0.078215852 6579300
-0.0013638914 0.011919702 0.074567236 6579300
-0.0014669161 0.011909393 0.072788991 6579300
-0.0014774044 0.011908343 0.060272131 6579300
-0.0014646297 0.011909621 0.073878422 6579300
-0.0011812971 0.011937976 0.069672152 6579300
-0.0013445477 0.011921639 0.070734717 6579300
-0.0012537453 0.011930726 0.067630574 6579300
-0.0012526144 0.011930838 0.063688941 6579300
-0.0010822968 0.011947882 0.061201099 6579300
-0.0013308182 0.011923012 0.068954684 6579300
-0.001450623 0.011911022 0.079948463 6579300
-0.0010009782 0.01195602 0.080592863 6579300
-0.00097238354 0.011958882 0.077852547 6579300
-0.0011190567 0.011944204 0.081568956 6579300
-0.0011295432 0.011943155 0.082247347 6579300
-0.0010023311 0.011955885 0.066871099 6579300
-0.0012384009 0.01193226 0.077180721 6579300
-0.0014568157 0.011910403 0.083170258 6579300
-0.0018182849 0.011857708 0.070182115 6579300
-0.0018350517 0.01185518 0.064661071 6579300
-0.0016103886 0.011889044 0.061493263 6579300
-0.0020013938 0.011830107 0.062801473 6579300
-0.0020331868 0.011825316 0.068385102 6579300
-0.0018574882 0.011851799 0.069463134 6579300
-0.0020008588 0.011830188 0.07442423 6579300
-0.0020451364 0.011823514 0.065367915 6579300
-0.0018039 0.011859876 0.064007603 6579300
-0.0016241532 0.011886969 0.062222812 6579300
-0.0020279207 0.011826109 0.073040411 6579300
-0.0017176825 0.011872872 0.082081504 6579300
-0.0017411779 0.01186933 0.083911024 6579300
-0.0016864926 0.011877572 0.07217811 6579300
-0.0019517763 0.011837587 0.078692958 6579300
-0.0020047803 0.011829597 0.081494384 6579300
-0.0015502847 0.011898103 0.065805539 6579300
-0.0018349987 0.011855189 0.075425692 6579300
-0.0015944766 0.011891442 0.066507563 6579300
-0.0019169144 0.011842841 0.077358052 6579300
-0.0015887558 0.011892305 0.07139729 6579300
-0.0014935469 0.011906656 0.076188885 6579300
-0.0015839644 0.011893027 0.079256758 6579300
-0.0018402303 0.0118544 0.076747261 6579300
-0.0025165214 0.011730207 0.063731872 6579300
-0.0021317471 0.011807993 0.060125951 6579300
-0.0022604899 0.011781966 0.060795195 6579300
-0.0024224529 0.011749224 0.067730665 6579300
-0.0026585644 0.011701493 0.073198088 6579300
-0.0025221207 0.011729076 0.076337829 6579300
-0.0022337651 0.011787369 0.06608545 6579300
-0.0026538505 0.011702445 0.070142277 6579300
-0.0026562889 0.011701953 0.075641595 6579300
-0.0024531013 0.011743029 0.08281108 6579300
-0.0022101463 0.011792144 0.077929005 6579300
-0.0022295143 0.011788229 0.067065649 6579300
-0.00244894 0.01174387 0.083967976 6579300
-0.0022892025 0.011776161 0.068980627 6579300
-0.0023124104 0.01177147 0.0713294 6579300
-0.0022942717 0.011775137 0.072098516 6579300
-0.0021139712 0.011811586 0.083318032 6579300
-0.0023451541 0.01176485 0.073855057 6579300
-0.0021579836 0.011802689 0.080179997 6579300
-0.0023931942 0.011755139 0.081971876 6579300
-0.0028739383 0.011647266 0.078040197 6579300
-0.0029568539 0.011626154 0.081516422 6579300
-0.0027713059 0.011673399 0.066516466 6579300
-0.0028225651 0.011660347 0.079497002 6579300
-0.0029673374 0.011623485 0.074654028 6579300
-0.0032021692 0.01156369 0.082818359 6579300
-0.0028952714 0.011641834 0.083447941 6579300
-0.0027328818 0.011683183 0.080801941 6579300
-0.003117085 0.011585355 0.076085716 6579300
-0.0031894753 0.011566923 0.067075998 6579300
-0.002869973 0.011648276 0.065462679 6579300
-0.0031458067 0.011578042 0.078980103 6579300
-0.002746121 0.011679811 0.063103624 6579300
-0.0030052497 0.011613831 0.061430268 6579300
-0.0031132796 0.011586324 0.064515032 6579300
-0.0031311482 0.011581775 0.069276854 6579300
-0.0029619772 0.011624849 0.06010212 6579300
-0.0032789249 0.011542595 0.072209947 6579300
-0.0033333881 0.011525795 0.071538948 6579300
-0.003303967 0.011534871 0.077109434 6579300
-0.0037114394 0.011409184 0.07938315 6579300
-0.0034462037 0.011490997 0.080552734 6579300
-0.0036111816 0.011440109 0.077914953 6579300
-0.0033176045 0.011530664 0.08207491 6579300
-0.0036020281 0.011442932 0.081306972 6579300
-0.0034067207 0.011503176 0.068340547 6579300
-0.0034135475 0.011501069 0.066446446 6579300
-0.0036131067 0.011439515 0.070652202 6579300
-0.0037384571 0.01140085 0.064284064 6579300
-0.0036360016 0.011432453 0.074805312 6579300
-0.0037745023 0.011389731 0.06749507 6579300
-0.0034589518 0.011487065 0.060814805 6579300
-0.0036430345 0.011430283 0.07647074 6579300
-0.0033507193 0.011520449 0.062727056 6579300
-0.0034520342 0.011489199 0.061998166 6579300
-0.0034730441 0.011482717 0.065108389 6579300
-0.0036203219 0.011437289 0.069897644 6579300
-0.0038434735 0.011367256 0.073157102 6579300
-0.0041998751 0.011237532 0.077999763 6579300
-0.0041451347 0.011257456 0.080961443 6579300
-0.0038952588 0.011348407 0.071265958 6579300
-0.0040888921 0.011277927 0.075599417 6579300
-0.00395633 0.011326178 0.078796923 6579300
-0.0038399587 0.011368535 0.08271075 6579300
-0.004317889 0.011194577 0.083568208 6579300
-0.0038666839 0.011358808 0.065883093 6579300
-0.0038783557 0.011354559 0.077106334 6579300
-0.0040105623 0.011306439 0.081819214 6579300
-0.0039102403 0.011342954 0.074152328 6579300
-0.003888096 0.011351014 0.079986691 6579300
-0.0043536169 0.011181572 0.063120216 6579300
-0.0042928411 0.011203693 0.061180327 6579300
-0.0042162593 0.011231568 0.067054003 6579300
-0.004277972 0.011209105 0.06211593 6579300
-0.0043782899 0.011172592 0.076343402 6579300
-0.0042949538 0.011202924 0.064630538 6579300
-0.0039321403 0.011334983 0.063571863 6579300
-0.004317564 0.011194695 0.065305166 6579300
-0.0044591497 0.011138841 0.072147645 6579300
-0.0047249445 0.011026802 0.079606935 6579300
-0.004707769 0.011034041 0.077228956 6579300
-0.004447469 0.011143764 0.070358209 6579300
-0.0046103341 0.011075112 0.080521122 6579300
-0.004453449 0.011141243 0.072846949 6579300
-0.0046166815 0.011072437 0.071011946 6579300
-0.0047927555 0.010998217 0.078146182 6579300
-0.0049199862 0.010944586 0.083781011 6579300
-0.0044669667 0.011135546 0.074420795 6579300
-0.0045951721 0.011081504 0.08299154 6579300
-0.0046295067 0.011067031 0.075374834 6579300
-0.0046772771 0.011046894 0.063729979 6579300
-0.0048961272 0.010954644 0.07897678 6579300
-0.004902856 0.010951807 0.06969671 6579300
-0.004884338 0.010959612 0.081378981 6579300
-0.0049188533 0.010945064 0.065048851 6579300
-0.0047472767 0.011017388 0.06756828 6579300
-0.0046924427 0.011040501 0.062514164 6579300
-0.0046116314 0.011074565 0.069026686 6579300
-0.0049117985 0.010948038 0.064354211 6579300
-0.0046182973 0.011071756 0.068358958 6579300
-0.0046241372 0.011069294 0.060637537 6579300
-0.004700019 0.011037308 0.066056319 6579300
-0.0051653092 0.010827373 0.070650727 6579300
-0.0052700662 0.010776924 0.06557437 6579300
-0.0051668109 0.010826649 0.071595192 6579300
-0.0053385571 0.01074394 0.062005382 6579300
-0.0051858206 0.010817494 0.061069757 6579300
-0.0052872137 0.010768666 0.063559733 6579300
-0.0050826715 0.010867169 0.073900595 6579300
-0.0051517696 0.010833893 0.068689071 6579300
-0.0054501644 0.010690193 0.0731242 6579300
-0.0052177492 0.010802118 0.083004855 6579300
-0.0054606921 0.010685123 0.076291293 6579300
-0.0052820812 0.010771138 0.079460166 6579300
-0.0052390094 0.01079188 0.075021721 6579300
-0.0054286118 0.010700572 0.066332884 6579300
-0.0054217386 0.010703882 0.072133392 6579300
-0.0053655431 0.010730945 0.082400687 6579300
-0.0053854692 0.010721348 0.067021839 6579300
-0.0052254451 0.010798412 0.080684997 6579300
-0.0055415593 0.010641956 0.07883019 6579300
-0.0055647655 0.010629319 0.064799741 6579300
-0.005788622 0.010507411 0.077439651 6579300
-0.005985999 0.010399925 0.08366999 6579300
-0.0058014826 0.010500408 0.082919963 6579300
-0.005645833 0.010585171 0.07385727 6579300
-0.005911456 0.010440519 0.081350982 6579300
-0.0055145156 0.010656684 0.069443017 6579300
-0.0055174516 0.010655085 0.075615369 6579300
-0.0056907842 0.010560691 0.079988435 6579300
-0.0054857931 0.010672325 0.078135334 6579300
-0.0058313143 0.010484162 0.074640863 6579300
-0.005659821 0.010577554 0.062549807 6579300
-0.0058720736 0.010461966 0.067299485 6579300
-0.0058883531 0.0104531 0.060978558 6579300
-0.0058470997 0.010475566 0.060003724 6579300
-0.0058508073 0.010473547 0.071025148 6579300
-0.0059749926 0.010405919 0.076585665 6579300
-0.0057620811 0.010521865 0.063197501 6579300
-0.0059083123 0.010442231 0.070213005 6579300
-0.0058003217 0.01050104 0.065735355 6579300
-0.0058591161 0.010469022 0.068264559 6579300
-0.0056250435 0.010596492 0.064166553 6579300
-0.0062049557 0.010267056 0.075854309 6579300
-0.0060307798 0.010373491 0.0729177 6579300
-0.0062059923 0.010266422 0.07812532 6579300
-0.0060109911 0.010385583 0.079250857 6579300
-0.0062826802 0.010219559 0.079929359 6579300
-0.0063599334 0.010172351 0.082785457 6579300
-0.0060423058 0.010366447 0.065151699 6579300
-0.0060999901 0.010331198 0.069573507 6579300
-0.0060723489 0.010348089 0.061980564 6579300
-0.0065097506 0.010080801 0.062714763 6579300
-0.006435168 0.010126377 0.061465308 6579300
-0.0063859429 0.010156457 0.074314229 6579300
-0.0064491984 0.010117804 0.067396052 6579300
-0.0065049799 0.010083716 0.072218612 6579300
-0.0062129195 0.010262189 0.066633523 6579300
-0.0062768622 0.010223115 0.064019099 6579300
-0.0063229389 0.010194958 0.060352169 6579300
-0.0064504459 0.010117041 0.075129226 6579300
-0.0064845397 0.010096207 0.068289742 6579300
-0.0066317404 0.0099976873 0.08176218 6579300
-0.0066770469 0.0099667972 0.070666343 6579300
-0.0067590005 0.0099109225 0.078579783 6579300
-0.006769123 0.0099040214 0.073808677 6579300
-0.0066520781 0.0099838208 0.077716075 6579300
-0.0066624582 0.0099767437 0.079226531 6579300
-0.0065805288 0.010032603 0.077091128 6579300
-0.0065487586 0.010054262 0.064625174 6579300
-0.0068228743 0.0098673748 0.082420439 6579300
-0.0067382636 0.0099250609 0.080904976 6579300
-0.006993487 0.0097510526 0.083482713 6579300
-0.0065251286 0.010070373 0.069056667 6579300
-0.0066341199 0.0099960649 0.073111042 6579300
-0.0067613814 0.0099092992 0.065601021 6579300
-0.0069028269 0.0098128635 0.075423315 6579300
-0.0068414961 0.0098546781 0.071488954 6579300
-0.0068918015 0.0098203812 0.063321218 6579300
-0.0067208796 0.0099369129 0.066654183 6579300
-0.0069042239 0.0098119117 0.061736055 6579300
-0.0068294015 0.009862924 0.060052477 6579300
-0.006979024 0.0097609134 0.067690328 6579300
-0.0071462383 0.009636214 0.069297194 6579300
-0.0072584706 0.0095512019 0.080568708 6579300
-0.0071208188 0.0096554691 0.081423886 6579300
-0.0070608621 0.0097008841 0.074626401 6579300
-0.0074291839 0.0094218915 0.082961991 6579300
-0.0071329824 0.0096462555 0.073209234 6579300
-0.0073091574 0.0095128082 0.082326941 6579300
-0.0071199513 0.0096561257 0.078157417 6579300
-0.0072388044 0.0095660985 0.076471955 6579300
-0.0072675264 0.0095443428 0.070526712 6579300
-0.0074269534 0.009423581 0.066363297 6579300
-0.0071367398 0.0096434094 0.064654641 6579300
-0.0071167559 0.0096585462 0.062428262 6579300
-0.0073897461 0.0094517646 0.068211459 6579300
-0.0074186954 0.0094298366 0.079326577 6579300
-0.0072492785 0.0095581645 0.071968943 6579300
-0.0074192705 0.0094294008 0.067266382 6579300
-0.0071326117 0.0096465359 0.060615927 6579300
-0.0074773231 0.0093854284 0.079955272 6579300
-0.0075040772 0.0093633505 0.064060323 6579300
-0.0075984253 0.0092841834 0.069788657 6579300
-0.0079170894 0.0090167923 0.083105735 6579300
-0.0075293751 0.0093421228 0.077544115 6579300
-0.0076912646 0.009206282 0.0730085 6579300
-0.0076493961 0.0092414133 0.074240312 6579300
-0.007494898 0.0093710525 0.065655187 6579300
-0.0076127364 0.009272174 0.071474381 6579300
-0.0078025488 0.0091129029 0.078131162 6579300
-0.0076782862 0.0092171719 0.080952056 6579300
-0.0075807194 0.0092990398 0.075665012 6579300
-0.0078076385 0.0091086328 0.076332606 6579300
-0.0076399855 0.00924931 0.062675178 6579300
-0.007816337 0.0091013331 0.074946836 6579300
-0.007839621 0.0090817958 0.070869714 6579300
-0.0076626567 0.0092302868 0.061603013 6579300
-0.0077207522 0.0091815386 0.063439697 6579300
-0.0076268576 0.0092603257 0.064941853 6579300
-0.0077764136 0.0091348328 0.067714147 6579300
-0.0076117772 0.0092729796 0.060879424 6579300
-0.0074932161 0.0093724634 0.060202271 6579300
-0.007917298 0.0090166172 0.082403682 6579300
-0.0080937697 0.0088549107 0.074366614 6579300
-0.0081790732 0.0087757604 0.080899395 6579300
-0.0080490084 0.0088964431 0.073563308 6579300
-0.0079611419 0.008977971 0.078953013 6579300
-0.0079762358 0.0089639667 0.069238029 6579300
-0.0081278458 0.0088232933 0.072659187 6579300
-0.0081132669 0.0088368198 0.076861076 6579300
-0.0080785835 0.0088690016 0.068606369 6579300
-0.0081737693 0.0087806815 0.080149837 6579300
-0.0080243433 0.0089193294 0.081789903 6579300
-0.0081542851 0.0087987604 0.077470876 6579300
-0.0082634119 0.008697506 0.067021236 6579300
-0.0081729908 0.0087814052 0.063686401 6579300
-0.008345861 0.0086210044 0.071703926 6579300
-0.0083655948 0.0086026937 0.07508301 6579300
-0.0081964862 0.0087596038 0.062387474 6579300
-0.0083458237 0.0086210389 0.070524223 6579300
-0.0082057854 0.0087509761 0.065977611 6579300
-0.0083756344 0.0085933786 0.061759081 6579300
-0.0081220763 0.0088286465 0.061123211 6579300
-0.0081804069 0.0087745227 0.069918267 6579300
-0.0083592348 0.0086085945 0.065356202 6579300
-0.0080989236 0.0088501284 0.064487599 6579300
-0.0083994409 0.0085692825 0.08221776 6579300
-0.0085772481 0.0083869863 0.073215224 6579300
-0.0085055288 0.0084605161 0.07397113 6579300
-0.0086184395 0.0083447546 0.080426715 6579300
-0.0086364718 0.0083262669 0.077365026 6579300
-0.0084158368 0.008552473 0.078250818 6579300
-0.0086379331 0.0083247693 0.076733604 6579300
-0.0083893556 0.008579623 0.076169975 6579300
-0.0085962601 0.0083674937 0.072560176 6579300
-0.008536391 0.0084288754 0.071091145 6579300
-0.0086968085 0.0082644075 0.083265908 6579300
-0.0085116774 0.0084542129 0.078987621 6579300
-0.0087748552 0.0081843892 0.068793043 6579300
-0.0085808411 0.0083833029 0.062883519 6579300
-0.0087305205 0.0082298433 0.067426018 6579300
-0.0084724138 0.0084944675 0.060722962 6579300
-0.0087126521 0.0082481634 0.062193893 6579300
-0.0086649498 0.0082970699 0.066678874 6579300
-0.008621362 0.0083417576 0.069809832 6579300
-0.0088727977 0.0080757551 0.068175592 6579300
-0.009161056 0.0077491188 0.083658442 6579300
-0.0089536868 0.0079840962 0.073929548 6579300
-0.0088505708 0.0081009418 0.079801597 6579300
-0.0088466201 0.0081054186 0.078118041 6579300
-0.0088495221 0.0081021301 0.064468645 6579300
-0.0090115126 0.0079185721 0.079008587 6579300
-0.0089154812 0.0080273896 0.072139919 6579300
-0.0089599723 0.0079769744 0.081319258 6579300
-0.0090359394 0.0078908931 0.082913287 6579300
-0.0087972404 0.0081613716 0.075248234 6579300
-0.0090882219 0.0078316489 0.077078767 6579300
-0.0091176713 0.0077982787 0.062478211 6579300
-0.0089376541 0.0080022635 0.060667261 6579300
-0.0089531709 0.0079846811 0.063155442 6579300
-0.0091471709 0.0077648521 0.075868003 6579300
-0.0090453895 0.0078801848 0.065125689 6579300
-0.0091072684 0.0078100674 0.069712542 6579300
-0.0090836817 0.0078367945 0.070360303 6579300
-0.0089818155 0.0079522235 0.061392616 6579300
-0.0091784829 0.0077293706 0.071428671 6579300
-0.0089168353 0.0080258548 0.066190131 6579300
-0.0092902277 0.0075909458 0.076460779 6579300
-0.0092786411 0.0076054749 0.079923891 6579300
-0.0093076546 0.0075690928 0.07799574 6579300
-0.0092349946 0.0076602045 0.080702558 6579300
-0.009323122 0.0075496975 0.08217226 6579300
-0.0094717713 0.007363297 0.081331104 6579300
-0.0092577003 0.0076317331 0.068514578 6579300
-0.0091996929 0.0077044722 0.074423559 6579300
-0.0093935234 0.007461417 0.066915885 6579300
-0.0094175367 0.0074313059 0.071905963 6579300
-0.0095644537 0.0072470773 0.072649665 6579300
-0.0092641441 0.0076236529 0.064342216 6579300
-0.0095124403 0.0073123001 0.069508195 6579300
-0.0095189316 0.0073041604 0.073313609 6579300
-0.0093835089 0.0074739745 0.060509335 6579300
-0.0095052151 0.007321361 0.063209027 6579300
-0.0093869558 0.0074696518 0.067827471 6579300
-0.0095500378 0.0072651543 0.073968619 6579300
-0.0093745235 0.0074852416 0.066261157 6579300
-0.0093510104 0.0075147264 0.06122211 6579300
-0.0098603955 0.0068356022 0.083033897 6579300
-0.0097210901 0.0070293653 0.075918488 6579300
-0.0097862585 0.0069387211 0.08210361 6579300
-0.0096748276 0.0070937122 0.078325614 6579300
-0.0095956996 0.0072037731 0.076993391 6579300
-0.0095679183 0.0072424137 0.065200455 6579300
-0.009695705 0.0070646736 0.080257267 6579300
-0.0096610906 0.0071128192 0.074956939 6579300
-0.009765855 0.0069671003 0.080933526 6579300
-0.0097620562 0.0069723837 0.083696805 6579300
-0.0096167726 0.0071744616 0.070966765 6579300
-0.0098161772 0.0068971068 0.061174843 6579300
-0.0098513383 0.0068482002 0.062493753 6579300
-0.0098731006 0.0068179304 0.073712461 6579300
-0.0098703997 0.0068216869 0.07939855 6579300
-0.0097206431 0.0070299865 0.067558013 6579300
-0.0097460048 0.0069947098 0.069981545 6579300
-0.0096884826 0.0070747198 0.064528644 6579300
-0.0096772267 0.0070903758 0.065818936 6579300
-0.01010053 0.0064723738 0.075779065 6579300
-0.010028233 0.0065843132 0.0787431 6579300
-0.0099595878 0.0066905948 0.07663276 6579300
-0.010152012 0.0063926657 0.077934973 6579300
-0.0099508967 0.006704052 0.069253907 6579300
-0.01013093 0.0064253076 0.077275515 6579300
-0.01001322 0.0066075567 0.074853882 6579300
-0.010026501 0.006586994 0.072319157 6579300
-0.009969987 0.0066744951 0.071562551 6579300
-0.0099413916 0.0067187678 0.063242972 6579300
-0.0099649904 0.0066822311 0.081513368 6579300
-0.010069467 0.0065204692 0.070405491 6579300
-0.010239011 0.0062579662 0.073880598 6579300
-0.010185569 0.0063407104 0.071086988 6579300
-0.010139429 0.0064121471 0.063816957 6579300
-0.010021496 0.0065947431 0.066641979 6579300
-0.01019492 0.0063262307 0.080155686 6579300
-0.010076464 0.0065096365 0.061853882 6579300
-0.010204789 0.00631095 0.060252022 6579300
-0.010066492 0.0065250765 0.064640626 6579300
-0.010223108 0.0062825875 0.082765453 6579300
-0.010224228 0.0062808534 0.068632603 6579300
-0.010303206 0.0061468645 0.071871907 6579300
-0.01040667 0.0059676603 0.082123354 6579300
-0.010314816 0.0061267558 0.076445527 6579300
-0.010336211 0.0060896995 0.074577138 6579300
-0.010312736 0.0061303577 0.067778699 6579300
-0.010276959 0.0061923242 0.069598019 6579300
-0.010260168 0.0062214071 0.080943279 6579300
-0.010448998 0.0058943462 0.078797311 6579300
-0.01027481 0.0061960472 0.079494417 6579300
-0.010495739 0.0058133886 0.083110161 6579300
-0.010276427 0.0061932467 0.06578584 6579300
-0.010376131 0.0060205543 0.062903851 6579300
-0.01048417 0.005833427 0.07784947 6579300
-0.010455939 0.0058823247 0.06375391 6579300
-0.010422925 0.005939506 0.072661191 6579300
-0.010302967 0.006147278 0.061148643 6579300
-0.010673748 0.0054755509 0.076269582 6579300
-0.010664103 0.0054943641 0.083737776 6579300
-0.010577254 0.0056637684 0.081429727 6579300
-0.010639627 0.0055421074 0.072147019 6579300
-0.010585797 0.0056471033 0.074127838 6579300
-0.010795777 0.0052375277 0.083126441 6579300
-0.010577789 0.0056627244 0.068825223 6579300
-0.010617129 0.0055859899 0.067441918 6579300
-0.010695301 0.005433511 0.073302805 6579300
-0.010613061 0.0055939248 0.062202331 6579300
-0.010727334 0.0053710295 0.068190761 6579300
-0.010808361 0.0052129803 0.071495712 6579300
-0.010793297 0.0052423654 0.065628827 6579300
-0.010638878 0.0055435672 0.066667482 6579300
-0.010649955 0.0055219615 0.064778298 6579300
-0.010567079 0.0056836144 0.060701635 16711680
-0.010776484 0.0052751587 0.080829591 6579300
-0.010693808 0.0054364232 0.061325494 6579300
-0.010733789 0.0053584371 0.077060424 6579300
-0.01075307 0.0053208293 0.078548566 6579300
-0.010864298 0.0050898772 0.070570514 6579300
-0.010880922 0.0050530317 0.075574048 6579300
-0.010812249 0.0052052331 0.069916114 6579300
-0.010940505 0.0049209781 0.065018691 6579300
-0.010879502 0.0050561796 0.063821815 6579300
-0.010877509 0.0050605978 0.060703546 6579300
-0.010909785 0.0049890638 0.07393536 6579300
-0.010896447 0.0050186254 0.062512562 6579300
-0.011049685 0.0046790033 0.071120366 6579300
