# .PCD v0.7 - Point Cloud Data file format
VERSION 0.7
FIELDS x y z rgb
SIZE 4 4 4 4
TYPE F F F U
COUNT 1 1 1 1
WIDTH 1065
HEIGHT 1
VIEWPOINT 0 0 0 1 0 0 0
POINTS 1065
DATA ascii
-0.041699972 0.05775601 0.041066878 6579300
-0.041642398 0.050599247 0.038620029 6579300
-0.040900372 0.051296346 0.038975466 6579300
-0.041084036 0.054674257 0.040085781 6579300
-0.040915567 0.052845616 0.039496761 6579300
-0.040732443 0.0488226 0.038168188 6579300
-0.040164787 0.021830149 0.07074444 6579300
-0.039069168 0.024937127 0.070932902 6579300
-0.038118001 0.0302149 0.073000364 6579300
-0.040391095 0.020336682 0.070077129 6579300
-0.037583984 0.030105777 0.071894415 6579300
-0.038560908 0.027707186 0.072000667 6579300
-0.038146786 0.028699718 0.071937747 6579300
-0.038710661 0.026519917 0.071412265 6579300
-0.038738288 0.028370107 0.072830379 6579300
-0.043752059 0.0027655896 0.064383186 6579300
-0.042324137 0.011316499 0.067425244 6579300
-0.042230878 0.0098055638 0.066384554 6579300
-0.042832047 0.0076545007 0.065971598 6579300
-0.039057255 0.02126711 0.068731718 6579300
-0.039646965 0.021711888 0.069800816 6579300
-0.037530433 0.028849989 0.071034096 6579300
-0.037899163 0.027884245 0.070980512 6579300
-0.038150102 0.026274618 0.070391186 6579300
-0.038566768 0.022909686 0.069010779 6579300
-0.040769067 0.01866913 0.069577478 6579300
-0.037872434 0.025473349 0.069544218 6579300
-0.038554702 0.023915347 0.069577977 6579300
-0.039236348 0.023697566 0.070388876 6579300
-0.036889814 0.029625209 0.070570491 6579300
-0.036266025 0.030643122 0.070271403 6579300
-0.036711924 0.031162165 0.07120958 6579300
-0.037253056 0.026497118 0.069271497 6579300
-0.037252553 0.027730752 0.06998758 6579300
-0.036007833 0.038379591 0.075069137 6579300
-0.034831207 0.040907707 0.074593931 6579300
-0.03461118 0.045487013 0.078084581 6579300
-0.035624087 0.039899539 0.075520322 6579300
-0.034858659 0.044524971 0.077809446 6579300
-0.03655431 0.037821695 0.075827025 6579300
-0.035888869 0.040475339 0.076625057 6579300
-0.037858609 0.032839194 0.074453518 6579300
-0.037039451 0.036092021 0.075423874 6579300
-0.035254572 0.039594065 0.074412771 6579300
-0.037194118 0.035171863 0.074973941 6579300
-0.034578294 0.042012833 0.074981406 6579300
-0.035108536 0.041780531 0.075986139 6579300
-0.034541685 0.044169001 0.076777495 6579300
-0.035095431 0.042604692 0.076674685 6579300
-0.035532687 0.038562398 0.074160196 6579300
-0.036262471 0.034829557 0.072865374 6579300
-0.035663515 0.036877211 0.073203988 6579300
-0.036928378 0.033883635 0.073437229 6579300
-0.036052775 0.037220787 0.074177206 6579300
-0.036560945 0.035796907 0.07411328 6579300
-0.029250249 0.056621891 0.07571356 6579300
-0.030592144 0.050732937 0.074194729 6579300
-0.042557601 0.00091721321 0.062078878 6579300
-0.042028856 0.002217497 0.062205989 6579300
-0.041122571 0.0038560906 0.062113427 6579300
-0.041245326 0.0059516509 0.063235328 6579300
-0.042730257 0.0050840578 0.064407073 6579300
-0.042440455 0.0063202186 0.064718753 6579300
-0.041780677 0.0040894514 0.062920652 6579300
-0.043033499 0.0038812319 0.064125992 6579300
-0.041875675 0.0076403967 0.064735554 6579300
-0.041201796 0.0092773335 0.064812183 6579300
-0.040346503 0.011124784 0.064851508 6579300
-0.0355988 0.02689974 0.067787081 6579300
-0.036370903 0.024796616 0.067479089 6579300
-0.03655256 0.022472985 0.066619806 6579300
-0.036508262 0.025882782 0.068112224 6579300
-0.037419926 0.022638826 0.067454733 6579300
-0.037304491 0.024106035 0.068054579 6579300
-0.037377402 0.021578364 0.066892862 6579300
-0.035576902 0.03009358 0.069222413 6579300
-0.035864282 0.028768305 0.068867147 6579300
-0.035817474 0.031775545 0.070330396 6579300
-0.035371248 0.033681694 0.070816509 6579300
-0.035408478 0.031130021 0.069555879 6579300
-0.037230399 0.02525836 0.068540812 6579300
-0.036592375 0.027705381 0.069083162 6579300
-0.034893736 0.033156008 0.070018202 6579300
-0.037740402 0.032089863 0.073649436 6579300
-0.037593152 0.031343773 0.072816201 6579300
-0.037008196 0.032930337 0.072847694 6579300
-0.03642761 0.033700902 0.072338834 6579300
-0.036127746 0.032520652 0.071172573 6579300
-0.035107333 0.034748193 0.071081482 6579300
-0.034932047 0.037029967 0.072138764 6579300
-0.035195429 0.035941347 0.07187333 6579300
-0.03474997 0.03896426 0.073085748 6579300
-0.034735031 0.038087886 0.072505459 6579300
-0.032772645 0.04726024 0.075311936 6579300
-0.030955303 0.049657915 0.074052997 6579300
-0.0309425 0.052101295 0.075428613 6579300
-0.031291667 0.056393158 0.079992838 6579300
-0.032424171 0.052569844 0.079152264 6579300
-0.031909637 0.054379631 0.079634584 6579300
-0.033153556 0.050447326 0.079080179 6579300
-0.031146113 0.057451691 0.080883965 6579300
-0.030703496 0.058237862 0.080190226 6579300
-0.03067621 0.059023611 0.08121106 6579300
-0.040511023 0.0010352732 0.060420703 6579300
-0.041744705 0.00051506807 0.061167672 6579300
-0.041038632 0.0026670594 0.061532572 6579300
-0.041247401 0.001532199 0.061217234 6579300
-0.038454138 0.011798264 0.063476913 6579300
-0.039304771 0.0040778262 0.060937092 6579300
-0.037730601 0.014731813 0.064211935 6579300
-0.03937754 0.0051537715 0.061400983 6579300
-0.037617177 0.01581816 0.064572923 6579300
-0.038172521 0.013051352 0.063806653 6579300
-0.040409934 0.0046940176 0.061895013 6579300
-0.04021319 0.0082274862 0.063366733 6579300
-0.03944432 0.011696173 0.064218633 6579300
-0.040257446 0.009766873 0.064084977 6579300
-0.040123422 0.0021792066 0.060637195 6579300
-0.039446563 0.0076404531 0.062438268 6579300
-0.039210804 0.010590278 0.063540205 6579300
-0.039221074 0.0093117682 0.062990561 6579300
-0.041010775 0.007566934 0.063766591 6579300
-0.040373202 0.0069247084 0.062919959 6579300
-0.040022574 0.0057949489 0.062084913 6579300
-0.041533291 0.010588336 0.065862961 6579300
-0.040859383 0.014226735 0.06705559 6579300
-0.041236144 0.012537734 0.066587456 6579300
-0.041082893 0.01494868 0.067806222 6579300
-0.041540414 0.013239755 0.067441814 6579300
-0.040424563 0.013741682 0.066254087 6579300
-0.041095387 0.011664902 0.065928958 6579300
-0.041976187 0.0085235694 0.065293491 6579300
-0.039161827 0.01605694 0.066037923 6579300
-0.03963957 0.014196059 0.065634869 6579300
-0.040029891 0.014942282 0.066427052 6579300
-0.037831005 0.017280567 0.065350667 6579300
-0.03909196 0.013629897 0.064770371 6579300
-0.038728256 0.014819403 0.064993277 6579300
-0.037281793 0.018686762 0.065551713 6579300
-0.040217236 0.0168481 0.067736007 6579300
-0.041116647 0.016516782 0.068793461 6579300
-0.039108224 0.017539794 0.066715173 6579300
-0.037959583 0.019432906 0.066438444 6579300
-0.03825663 0.018257981 0.06615857 6579300
-0.039264649 0.01877155 0.067546621 6579300
-0.037730895 0.020387499 0.066679917 6579300
-0.038637262 0.020607069 0.067770749 6579300
-0.039739955 0.019538563 0.068657197 6579300
-0.040164303 0.018568542 0.068669043 6579300
-0.040692136 0.017534073 0.068795428 6579300
-0.034322459 0.035513185 0.070577845 6579300
-0.033442073 0.039825395 0.071794122 6579300
-0.031982385 0.045128744 0.072880514 6579300
-0.032863092 0.041824762 0.072174385 6579300
-0.033521369 0.038487814 0.071224898 6579300
-0.033400524 0.040826079 0.072260454 6579300
-0.032615468 0.043971702 0.073022969 6579300
-0.033023749 0.04287605 0.07293202 6579300
-0.033869974 0.037104677 0.07090193 6579300
-0.034065701 0.03992147 0.072676033 6579300
-0.034317441 0.040882442 0.073660627 6579300
-0.033569731 0.043238781 0.073932976 6579300
-0.03379032 0.041885078 0.07346487 6579300
-0.032686058 0.045457095 0.073946603 6579300
-0.032092821 0.046569839 0.0737966 6579300
-0.034028802 0.045775391 0.076831356 6579300
-0.034502205 0.043165769 0.075799748 6579300
-0.033518951 0.046177905 0.075928293 6579300
-0.033696461 0.044191416 0.074853212 6579300
-0.033977382 0.044694614 0.075725451 6579300
-0.033363868 0.047658782 0.076890133 6579300
-0.031569477 0.051392589 0.076085679 6579300
-0.031268433 0.052838761 0.076555811 6579300
-0.031680562 0.054106228 0.078636125 6579300
-0.031391867 0.055583142 0.079307638 6579300
-0.033544723 0.048881106 0.078523815 6579300
-0.032966021 0.049943488 0.078010403 6579300
-0.031946216 0.053071637 0.078336045 6579300
-0.034050245 0.046916015 0.077956386 6579300
-0.03236584 0.051840711 0.078257129 6579300
-0.033583537 0.048044335 0.077808328 6579300
-0.03263941 0.049709871 0.076917112 6579300
-0.03127211 0.053792484 0.077297419 6579300
-0.032136094 0.051433437 0.077265844 6579300
-0.029876992 0.058696773 0.078271583 6579300
-0.030621691 0.057586726 0.079173401 6579300
-0.030212073 0.059045192 0.079510331 6579300
-0.032081015 0.047678094 0.07441745 6579300
-0.031710926 0.050259501 0.075517923 6579300
-0.032365657 0.049020167 0.075818509 6579300
-0.03008513 0.054000657 0.075322725 6579300
-0.030595699 0.054320596 0.076327711 6579300
-0.030693704 0.055554703 0.077460982 6579300
-0.030304724 0.057262633 0.078127749 6579300
-0.029780868 0.05562938 0.075895436 6579300
-0.028999599 0.058176279 0.076296486 6579300
-0.029705504 0.057532474 0.076998368 6579300
-0.028844584 0.059263662 0.076742627 6579300
-0.036489874 0.0090541504 0.026089797 6579300
-0.036883887 0.0091482783 0.027072672 6579300
-0.036671307 0.011094813 0.026343893 6579300
-0.037658829 0.013680541 0.028573779 6579300
-0.038052052 0.01606201 0.029327352 6579300
-0.037931453 0.017331121 0.028897533 6579300
-0.036431711 0.0073835705 0.026109349 6579300
-0.038081631 0.014972046 0.029510165 6579300
-0.037086014 0.01135633 0.027362248 6579300
-0.037421484 0.015630716 0.027782267 6579300
-0.038698889 0.017591428 0.030804273 6579300
-0.035389099 0.002186029 0.024000287 6579300
-0.037338469 0.014340438 0.027701445 6579300
-0.037314281 0.012748251 0.027798757 6579300
-0.038436085 0.016518122 0.030249128 6579300
-0.037294429 0.010292073 0.027908798 6579300
-0.036017668 0.0021291638 0.025098497 6579300
-0.036227472 0.0057961764 0.025730921 6579300
-0.037523385 0.0086578717 0.028185472 6579300
-0.036461201 0.0029822176 0.025929311 6579300
-0.036964208 0.0038845334 0.026866747 6579300
-0.037547987 0.011239111 0.028417455 6579300
-0.035059463 8.2807448e-05 0.023288693 6579300
-0.036867753 0.0056654904 0.02683034 6579300
-0.036134508 0.00091042143 0.025211459 6579300
-0.037085745 0.0069482639 0.02730203 6579300
-0.035368342 0.00086082693 0.02388077 6579300
-0.036875695 0.0080074035 0.02701591 6579300
-0.035765722 1.0989851e-05 0.02450671 6579300
-0.039492041 0.032989737 0.033362661 6579300
-0.038468137 0.022960007 0.030633861 6579300
-0.039755695 0.031750459 0.034673899 6579300
-0.03996516 0.035537936 0.034955781 6579300
-0.040076077 0.03375762 0.035707865 6579300
-0.037838738 0.018771812 0.028641636 6579300
-0.039451368 0.031017076 0.033504941 6579300
-0.039778348 0.032819778 0.034599345 6579300
-0.038455114 0.024231682 0.030376352 6579300
-0.038769729 0.026468551 0.03134938 6579300
-0.03872427 0.025304396 0.031342689 6579300
-0.038333587 0.021937961 0.030228147 6579300
-0.040249247 0.035750035 0.036122236 6579300
-0.039235912 0.03023796 0.032718722 6579300
-0.039231628 0.028535377 0.032971729 6579300
-0.039573554 0.034254476 0.03350566 6579300
-0.038740631 0.021125959 0.031179424 6579300
-0.039069925 0.022355458 0.032130852 6579300
-0.039636049 0.028987952 0.034215614 6579300
-0.039443992 0.02543216 0.033378609 6579300
-0.038254566 0.020518437 0.029895008 6579300
-0.038747855 0.01944899 0.03103097 6579300
-0.038801715 0.023527069 0.031571861 6579300
-0.039041832 0.02515352 0.032338168 6579300
-0.039664764 0.030444099 0.034432627 6579300
-0.039294362 0.02327049 0.03278698 6579300
-0.039366838 0.027314192 0.033371337 6579300
-0.038404375 0.018547082 0.030076368 6579300
-0.040588126 0.046596475 0.037856586 6579300
-0.040129762 0.040195052 0.035849623 6579300
-0.040720139 0.047782302 0.03857423 6579300
-0.040679038 0.045829639 0.038686872 6579300
-0.040521856 0.045522559 0.037597928 6579300
-0.040569518 0.044548836 0.038154546 6579300
-0.040260118 0.042273145 0.036365721 6579300
-0.040848956 0.047216602 0.039640162 6579300
-0.040475782 0.043209989 0.037750445 6579300
-0.040198922 0.037080955 0.036004215 6579300
-0.040272508 0.03939404 0.036602747 6579300
-0.040447913 0.037148669 0.037064593 6579300
-0.040699311 0.042753782 0.038823713 6579300
-0.040532026 0.04134896 0.037942268 6579300
-0.040363289 0.040328208 0.037102453 6579300
-0.040038183 0.038585071 0.035512164 6579300
-0.039938606 0.037302855 0.034932017 6579300
-0.041126493 0.059230696 0.042319622 6579300
-0.041064087 0.056717064 0.042571161 6579300
-0.040887281 0.053665522 0.04023914 6579300
-0.040967144 0.055709764 0.040794395 6579300
-0.041175015 0.059278175 0.043550558 6579300
-0.041099288 0.057958294 0.042561367 6579300
-0.041022904 0.055644643 0.042298526 6579300
-0.040941253 0.052657694 0.041140456 6579300
-0.041057989 0.054480832 0.042384658 6579300
-0.040969756 0.051354941 0.041073155 6579300
-0.040897328 0.049694385 0.040188808 6579300
-0.04077002 0.049248192 0.039159298 6579300
-0.04087954 0.048317425 0.039765857 6579300
-0.040958233 0.05365793 0.041477464 6579300
-0.041100699 0.051811129 0.042131491 6579300
-0.041135404 0.053350024 0.042713013 6579300
-0.041194685 0.057384446 0.044004813 6579300
-0.037361678 0.010658088 0.062498398 6579300
-0.036473192 0.016760316 0.064324632 6579300
-0.038193759 0.0056120562 0.061041102 6579300
-0.038176116 0.01009162 0.062669016 6579300
-0.03832918 0.0084663145 0.062135104 6579300
-0.039172653 0.00079790741 0.059660539 6579300
-0.033511963 0.033273254 0.06896469 6579300
-0.034378801 0.031723093 0.068969995 6579300
-0.035541408 0.022395616 0.065966457 6579300
-0.034264456 0.03012057 0.068218745 6579300
-0.034443893 0.028863043 0.067830808 6579300
-0.036338054 0.019686891 0.065374367 6579300
-0.036077902 0.021467494 0.065923639 6579300
-0.035502821 0.024265965 0.066696689 6579300
-0.036163762 0.023434155 0.066732824 6579300
-0.034039877 0.034675989 0.069939382 6579300
-0.031151528 0.047261033 0.073102631 6579300
-0.031804256 0.041713934 0.071196601 6579300
-0.032175329 0.043073978 0.072114147 6579300
-0.032601036 0.040107176 0.071167268 6579300
-0.028974079 0.055280738 0.074732497 6579300
-0.029694533 0.05273154 0.074240252 6579300
-0.031051623 0.048271775 0.073467314 6579300
-0.038937468 0.015445052 0.030301241 6579300
-0.038304046 0.012679674 0.029550236 6579300
-0.036728192 0.0013882192 0.026125684 6579300
-0.039113779 0.014442403 0.029885087 6579300
-0.037689056 0.0028589196 0.02618554 6579300
-0.038104776 0.0072884415 0.027673431 6579300
-0.037192009 0.00026145708 0.025446888 6579300
-0.040196761 0.028120259 0.034325812 6579300
-0.039644536 0.021420313 0.032158319 6579300
-0.039621785 0.026396288 0.033921488 6579300
-0.039609484 0.01972259 0.031571928 6579300
-0.039828107 0.024493268 0.033177152 6579300
-0.041163232 0.034713991 0.036424879 6579300
-0.041055404 0.033541523 0.036038868 6579300
-0.041003507 0.032188624 0.03557913 6579300
-0.04058478 0.03105839 0.035269182 6579300
-0.040985066 0.046380103 0.04043128 6579300
-0.041151885 0.038072754 0.037577655 6579300
-0.041015919 0.036137637 0.036947455 6579300
-0.041326534 0.045233589 0.039991867 6579300
-0.041225493 0.043455891 0.039391827 6579300
-0.04142518 0.039725628 0.038092293 6579300
-0.041949246 0.047428876 0.040683951 6579300
-0.041199863 0.049919277 0.041607283 6579300
-0.041624125 0.058570843 0.044489227 6579300
-0.041536249 0.059865329 0.044920564 6579300
-0.042014599 0.054045133 0.042947967 6579300
-0.041938588 0.05504144 0.043297332 6579300
-0.036933646 0.01732911 0.063249856 6579300
-0.038165729 0.012054903 0.060325529 6579300
-0.038707308 0.0079053398 0.058888722 6579300
-0.038643535 0.0064096539 0.058893874 6579300
-0.036970358 0.014788456 0.062965684 6579300
-0.036869302 0.01624383 0.063290089 6579300
-0.037810341 0.010625063 0.060925078 6579300
-0.037542183 0.017627172 0.062045477 6579300
-0.038990334 0.0053660846 0.058107205 6579300
-0.037345465 0.016261123 0.062329847 6579300
-0.037975669 0.013963412 0.060867138 6579300
-0.03848464 0.0098334588 0.059497815 6579300
-0.037596501 0.014917577 0.061711792 6579300
-0.037826583 0.0066839145 0.061182562 6579300
-0.037818111 0.0092217131 0.06090742 6579300
-0.038088538 0.0082668271 0.060188472 6579300
-0.03853555 0.0050679026 0.059192415 6579300
-0.038435511 0.0029285806 0.059754223 6579300
-0.039280389 0.0020736216 0.057255454 6579300
-0.037786059 0.0078845704 0.061164767 6579300
-0.038760576 0.0021621666 0.058844745 6579300
-0.038285434 0.0057958304 0.059875783 6579300
-0.039091926 0.0013008828 0.057927199 6579300
-0.037198365 0.012663251 0.062406298 6579300
-0.038743708 0.0037357546 0.058709897 6579300
-0.0382099 0.00699742 0.059965633 6579300
-0.035995357 0.028091852 0.064932413 6579300
-0.035223782 0.033083845 0.066358194 6579300
-0.035664365 0.028904526 0.065579325 6579300
-0.036843903 0.02288986 0.063356757 6579300
-0.036203619 0.021592638 0.064684317 6579300
-0.036021836 0.025075871 0.064958997 6579300
-0.035531823 0.030083768 0.065815702 6579300
-0.036408074 0.023170652 0.064229511 6579300
-0.036646485 0.01816988 0.063880756 6579300
-0.036950499 0.020457603 0.063206047 6579300
-0.036860242 0.021688405 0.063355654 6579300
-0.03442698 0.031754337 0.067602009 6579300
-0.034309715 0.035842419 0.067856073 6579300
-0.034666631 0.029988954 0.067219168 6579300
-0.034892313 0.026123431 0.066813044 6579300
-0.035404112 0.027031643 0.066092245 6579300
-0.034723703 0.033586808 0.067211144 6579300
-0.034073208 0.033620544 0.068151861 6579300
-0.03335261 0.035170496 0.069225259 6579300
-0.035274941 0.02825658 0.066304259 6579300
-0.034943417 0.031054653 0.066841245 6579300
-0.035447866 0.025474586 0.065996803 6579300
-0.035732802 0.023773152 0.065549836 6579300
-0.034572113 0.027524754 0.06730476 6579300
-0.033998456 0.034805097 0.0682844 6579300
-0.032771897 0.045918476 0.069993183 6579300
-0.032562431 0.042779982 0.070101529 6579300
-0.031687956 0.04564314 0.071261629 6579300
-0.031879961 0.047902327 0.071134932 6579300
-0.032568634 0.044002015 0.070148371 6579300
-0.033513859 0.041157994 0.06890554 6579300
-0.032388117 0.046980243 0.070493683 6579300
-0.033963423 0.040130548 0.068328843 6579300
-0.033252828 0.043685649 0.069325998 6579300
-0.033347543 0.039642129 0.06906642 6579300
-0.033232965 0.038251378 0.069302 6579300
-0.032650091 0.03894183 0.070109539 6579300
-0.033748101 0.038662151 0.068536907 6579300
-0.031250898 0.044652317 0.071844049 6579300
-0.031016359 0.045960259 0.072117135 6579300
-0.032459624 0.041708846 0.070245504 6579300
-0.032831933 0.040833987 0.069751523 6579300
-0.033948507 0.036680102 0.068347074 6579300
-0.031918731 0.042929742 0.070965685 6579300
-0.033151265 0.036238033 0.069521405 6579300
-0.030513432 0.056406293 0.072682023 6579300
-0.03025209 0.055245515 0.072889738 6579300
-0.029819062 0.057075225 0.073383853 6579300
-0.030603325 0.05265801 0.072444871 6579300
-0.030140711 0.058404535 0.073124245 6579300
-0.028674837 0.057669323 0.074520066 6579300
-0.029437475 0.058850769 0.073825791 6579300
-0.02834685 0.059293032 0.074903823 6579300
-0.031189254 0.048251852 0.071944147 6579300
-0.028441798 0.056696843 0.07481578 6579300
-0.03170925 0.049027596 0.071295395 6579300
-0.031247733 0.050210118 0.071788236 6579300
-0.029159877 0.056154642 0.073991425 6579300
-0.030708525 0.051052287 0.072387956 6579300
-0.030063923 0.050003219 0.073196046 6579300
-0.030117661 0.053450838 0.072979704 6579300
-0.029517144 0.0550487 0.07361836 6579300
-0.030772703 0.049270667 0.072391123 6579300
-0.046040908 0.021414587 0.032240581 6579300
-0.045782086 0.019832671 0.031616889 6579300
-0.04563304 0.017588614 0.030788515 6579300
-0.04555421 0.025700478 0.03362333 6579300
-0.045960832 0.029893907 0.035204407 6579300
-0.046423867 0.031141011 0.035763029 6579300
-0.046315644 0.024757365 0.033488166 6579300
-0.046595082 0.027422648 0.034498502 6579300
-0.045658421 0.023668204 0.032934949 6579300
-0.045176752 0.029227911 0.034767348 6579300
-0.044262018 0.0096365102 0.027882425 6579300
-0.044118471 0.023289356 0.03258507 6579300
-0.044386521 0.02427621 0.032951895 6579300
-0.045145355 0.022680549 0.03248354 6579300
-0.044910569 0.020677838 0.03177147 6579300
-0.043384574 0.022374297 0.032194138 6579300
-0.045033801 0.02671171 0.033855706 6579300
-0.044794179 0.027995728 0.034271415 6579300
-0.044784423 0.019516783 0.031359695 6579300
-0.043289408 0.024992159 0.03308285 6579300
-0.043144297 0.030131642 0.034799125 6579300
-0.044390228 0.030403806 0.035043299 6579300
-0.043527327 0.027954474 0.034114886 6579300
-0.044193577 0.028846813 0.03449627 6579300
-0.043054838 0.029066227 0.034430336 6579300
-0.043369774 0.026850959 0.033724949 6579300
-0.047069672 0.039337289 0.038922928 6579300
-0.046940498 0.043374628 0.04037074 6579300
-0.047500744 0.042261731 0.040145028 6579300
-0.046282753 0.036841732 0.037741564 6579300
-0.047145367 0.038300537 0.038565196 6579300
-0.045995455 0.041298535 0.039291978 6579300
-0.04639376 0.04259827 0.03990344 6579300
-0.045655735 0.038766239 0.03824484 6579300
-0.046534229 0.033311062 0.036557801 6579300
-0.045231361 0.036759559 0.03742915 6579300
-0.046237543 0.034635257 0.036942698 6579300
-0.044686273 0.037795644 0.037652981 6579300
-0.045554712 0.035488892 0.037069362 6579300
-0.044539247 0.03582377 0.036934346 6579300
-0.04232515 0.056778673 0.043866396 6579300
-0.042180296 0.051554911 0.042081412 6579300
-0.040414635 0.001829992 0.025168331 6579300
-0.041755795 0.00071438134 0.024715345 6579300
-0.04110755 0.0059429966 0.026547942 6579300
-0.04274952 0.0061998819 0.026622888 6579300
-0.043057501 0.0073082014 0.02699461 6579300
-0.040951665 0.0037227632 0.025825927 6579300
-0.042567361 0.0014955362 0.025010765 6579300
-0.042139735 0.004563211 0.02607869 6579300
-0.041872278 0.0029860442 0.025544509 6579300
-0.043171879 0.003700596 0.025750576 6579300
-0.042970371 0.0052444851 0.026287619 6579300
-0.041491833 0.0097369961 0.02780086 6579300
-0.042133909 0.0081286756 0.027224064 6579300
-0.041854709 0.010884411 0.028215127 6579300
-0.040363982 0.023498345 0.032686628 6579300
-0.04045213 0.022396494 0.032289419 6579300
-0.039914384 0.018239744 0.030949024 6579300
-0.041014858 0.02153315 0.031888511 6579300
-0.040909927 0.025253415 0.033194643 6579300
-0.041129656 0.029854851 0.034746651 6579300
-0.040810179 0.026996957 0.033815961 6579300
-0.041603524 0.022666231 0.032231409 6579300
-0.041441418 0.028762309 0.034328472 6579300
-0.042174708 0.024130993 0.032708995 6579300
-0.042094544 0.025244353 0.033094175 6579300
-0.041470949 0.026116161 0.033419952 6579300
-0.042709742 0.03118599 0.035126034 6579300
-0.04330663 0.033556968 0.035987891 6579300
-0.042166322 0.032079555 0.035428111 6579300
-0.042213649 0.034709338 0.036323261 6579300
-0.046332244 0.032329444 0.03614822 6579300
-0.045180589 0.031072469 0.035408795 6579300
-0.045228641 0.032262046 0.035827406 6579300
-0.044572584 0.033781253 0.036228646 6579300
-0.044202253 0.032833293 0.035865892 6579300
-0.043713015 0.034482595 0.036359053 6579300
-0.043455146 0.036859557 0.037131451 6579300
-0.04320614 0.038284693 0.037587386 6579300
-0.043069609 0.035487402 0.036618259 6579300
-0.044775225 0.040968347 0.038775221 6579300
-0.044664949 0.039921209 0.038389921 6579300
-0.044145942 0.04701598 0.040774409 6579300
-0.042930614 0.052830458 0.042559221 6579300
-0.043863848 0.053838357 0.043082684 6579300
-0.047833111 0.056344654 0.045608956 6579300
-0.047534171 0.053547919 0.044373926 6579300
-0.047915027 0.054445848 0.04491993 6579300
-0.047091823 0.058212832 0.045940198 6579300
-0.047075957 0.055533577 0.044898987 6579300
-0.046796624 0.059547603 0.046274293 6579300
-0.03924834 0.0022273492 0.025506394 6579300
-0.038734887 0.0083374111 0.027785782 6579300
-0.038993418 0.010608301 0.028513882 6579300
-0.039481841 0.012345912 0.028975921 6579300
-0.038755011 0.0050916504 0.026617631 6579300
-0.038805079 0.0094088232 0.028146245 6579300
-0.038832445 0.0040850681 0.026223585 6579300
-0.040401042 0.0091327233 0.027724948 6579300
-0.03959953 0.0072799954 0.027200326 6579300
-0.041132055 0.0081524868 0.027314309 6579300
-0.040059287 0.011284488 0.028500762 6579300
-0.039939605 0.016102899 0.030200917 6579300
-0.039901309 0.0099660587 0.028068876 6579300
-0.040018339 0.014031789 0.029465368 6579300
-0.039679985 0.0060482626 0.026754813 6579300
-0.040688209 0.0070404201 0.026981998 6579300
-0.040054746 0.0046271589 0.026184157 6579300
-0.044659235 0.016319251 0.030238807 6579300
-0.043122444 0.016963998 0.030290544 6579300
-0.043427899 0.0087858224 0.027485566 6579300
-0.043589298 0.013478549 0.029118603 6579300
-0.04429289 0.014298742 0.029488117 6579300
-0.044827946 0.015090266 0.029826876 6579300
-0.044432472 0.012050957 0.028731721 6579300
-0.0411187 0.013002703 0.028956456 6579300
-0.043243051 0.010641712 0.028110078 6579300
-0.042548042 0.0099148974 0.0278726 6579300
-0.042113476 0.013587899 0.029140217 6579300
-0.041869577 0.011949903 0.028582403 6579300
-0.043120638 0.011959188 0.028564189 6579300
-0.041959193 0.016567657 0.03014414 6579300
-0.042017709 0.014642217 0.029497281 6579300
-0.043198135 0.014931591 0.029578557 6579300
-0.040280618 0.017231802 0.030521793 6579300
-0.040687267 0.01494325 0.029655797 6579300
-0.040750649 0.019929281 0.031379465 6579300
-0.041101225 0.018970884 0.030990792 6579300
-0.044584725 0.017351147 0.030568402 6579300
-0.042780824 0.018105665 0.030671908 6579300
-0.041509416 0.017944507 0.030618936 6579300
-0.042434286 0.020029496 0.031337686 6579300
-0.043171935 0.019186383 0.031046607 6579300
-0.042897683 0.021015996 0.031657036 6579300
-0.04268593 0.023280988 0.03243003 6579300
-0.042583831 0.037410636 0.037250873 6579300
-0.042161014 0.04283442 0.039105713 6579300
-0.041814007 0.041866675 0.038790796 6579300
-0.042463776 0.03912368 0.037827101 6579300
-0.042531516 0.043745745 0.039425779 6579300
-0.042329032 0.044802822 0.03977691 6579300
-0.043639824 0.03953496 0.038097531 6579300
-0.042796314 0.041082282 0.038529985 6579300
-0.043958612 0.041667011 0.038891602 6579300
-0.043636438 0.043066591 0.039308429 6579300
-0.043322455 0.045854051 0.040208239 6579300
-0.042978961 0.046867058 0.040517855 6579300
-0.046191484 0.045737002 0.040908117 6579300
-0.047065925 0.046196099 0.041415486 6579300
-0.045970719 0.044424314 0.040379114 6579300
-0.045330688 0.045267079 0.040461872 6579300
-0.04513602 0.046293385 0.04075769 6579300
-0.04419915 0.044450339 0.039906286 6579300
-0.04476738 0.042435464 0.039303225 6579300
-0.042558178 0.049513817 0.041393392 6579300
-0.043320939 0.050919753 0.041957848 6579300
-0.04599116 0.047107872 0.041347638 6579300
-0.044892676 0.051836606 0.042661756 6579300
-0.046585698 0.05283602 0.043651339 6579300
-0.046791982 0.049287133 0.042428326 6579300
-0.047037199 0.051635265 0.043388486 6579300
-0.047499392 0.047706865 0.042127166 6579300
-0.046203893 0.054807801 0.044225343 6579300
-0.044888344 0.053441823 0.043227591 6579300
-0.045528911 0.050550964 0.042400226 6579300
-0.045726448 0.049513672 0.042091239 6579300
-0.045907367 0.051972114 0.04306696 6579300
-0.045150947 0.055790886 0.044178274 6579300
-0.044622261 0.059861299 0.045448348 6579300
-0.045686722 0.059632383 0.045788407 6579300
-0.045707624 0.058132723 0.045242216 6579300
-0.045437999 0.048368141 0.041583121 6579300
-0.043685678 0.048419856 0.041172236 6579300
-0.044622369 0.049456764 0.041757483 6579300
-0.044468481 0.054892186 0.043617215 6579300
-0.043496672 0.055299077 0.043520045 6579300
-0.044458363 0.057949305 0.044717375 6579300
-0.045953702 0.057035327 0.044939831 6579300
-0.044362243 0.056651969 0.044261009 6579300
-0.043091524 0.057389438 0.044184469 6579300
-0.04339698 0.05851334 0.044623483 6579300
-0.038799703 0.012959924 0.060550813 6579300
-0.038493946 0.016935183 0.061898835 6579300
-0.039300136 0.010442086 0.059834853 6579300
-0.039548256 0.0084228413 0.059191827 6579300
-0.038007256 0.015984997 0.061325096 6579300
-0.039444804 0.0071181809 0.058662154 6579300
-0.039289437 0.0036368221 0.057414766 6579300
-0.040425159 0.00081592042 0.056762304 6579300
-0.037232164 0.025921257 0.064679407 6579300
-0.035271142 0.035070017 0.067126811 6579300
-0.035668265 0.034002792 0.066948727 6579300
-0.036719281 0.025182713 0.064117253 6579300
-0.036950871 0.024056779 0.063810937 6579300
-0.038144737 0.019634577 0.06273558 6579300
-0.037670508 0.018642027 0.062160723 6579300
-0.036424685 0.026884213 0.064605042 6579300
-0.035507318 0.03195361 0.066040531 6579300
-0.034588132 0.040934153 0.069053113 6579300
-0.033812191 0.045119531 0.070260867 6579300
-0.034802642 0.039380237 0.068547025 6579300
-0.034464229 0.037614223 0.067625798 6579300
-0.033581484 0.042732105 0.069084831 6579300
-0.032492064 0.050518431 0.07156866 6579300
-0.031515833 0.054868706 0.07269118 6579300
-0.032338414 0.051750451 0.071982868 6579300
-0.031059423 0.057472907 0.073463507 6579300
-0.032700993 0.0484359 0.070828699 6579300
-0.031588022 0.052755058 0.071807899 6579300
-0.043424807 0.00024932422 0.02456329 6579300
-0.044670243 0.0082840752 0.027798772 6579300
-0.045205101 0.011013342 0.029275458 6579300
-0.044614818 0.0070973956 0.027755011 6579300
-0.044322304 0.006090879 0.026888659 6579300
-0.045652051 0.013658659 0.030465355 6579300
-0.04530691 0.012629269 0.02942401 6579300
-0.045891482 0.014587433 0.031161815 6579300
-0.044252314 0.0049309116 0.026792461 6579300
-0.043588676 0.0012674454 0.024993723 6579300
-0.043822873 0.0028527044 0.025593145 6579300
-0.045876134 0.015672624 0.030978799 6579300
-0.044931911 0.010417709 0.028424712 6579300
-0.045511622 0.010443011 0.030120771 6579300
-0.044988479 0.0066805496 0.028628306 6579300
-0.044660401 0.0057894778 0.027816245 6579300
-0.044011012 0.00092660281 0.025947386 6579300
-0.044245996 0.0032058114 0.026667479 6579300
-0.045617737 0.011461108 0.030445006 6579300
-0.044688303 0.0040148287 0.02772918 6579300
-0.045328639 0.0093253534 0.029615482 6579300
-0.046706785 0.025655203 0.034613252 6579300
-0.046309367 0.022650173 0.032759946 6579300
-0.047103398 0.029497737 0.036277473 6579300
-0.047242809 0.03046271 0.036947202 6579300
-0.046917763 0.027489316 0.035544664 6579300
-0.046226807 0.020232217 0.03258685 6579300
-0.046162929 0.01884759 0.032203738 6579300
-0.047223989 0.028150214 0.03691199 6579300
-0.046537206 0.022344746 0.033890601 6579300
-0.045996368 0.016725119 0.031384632 6579300
-0.046105783 0.017851597 0.03189034 6579300
-0.046769321 0.024208548 0.034899868 6579300
-0.047832228 0.04494381 0.041337926 6579300
-0.047419816 0.036225572 0.038117215 6579300
-0.047890186 0.045710508 0.042100787 6579300
-0.047639813 0.040768456 0.039908238 6579300
-0.047347549 0.034709416 0.037545025 6579300
-0.04775298 0.042534575 0.041215625 6579300
-0.04781295 0.043538295 0.041862573 6579300
-0.047562689 0.036318254 0.039311536 6579300
-0.047851175 0.041917998 0.04223207 6579300
-0.047665585 0.039991334 0.040681198 6579300
-0.04756014 0.034868706 0.039011728 6579300
-0.047458991 0.033730406 0.038149219 6579300
-0.047568277 0.038498588 0.039773606 6579300
-0.047339473 0.032468483 0.037146319 6579300
-0.047928575 0.057454418 0.046303388 6579300
-0.04787872 0.052668281 0.044848889 6579300
-0.047894195 0.049604505 0.043205488 6579300
-0.047866888 0.058557115 0.047738433 6579300
-0.047849964 0.059601769 0.048473813 16711680
-0.047853813 0.054494608 0.046064258 6579300
-0.047839191 0.057171412 0.047516689 6579300
-0.047905244 0.050698522 0.043543167 6579300
-0.047903746 0.048154868 0.0433922 6579300
-0.047963656 0.046512298 0.043605354 6579300
-0.047913332 0.049504656 0.044517569 6579300
-0.0478632 0.054939177 0.047086574 6579300
-0.047911674 0.050703999 0.045292437 6579300
-0.045531247 0.0094509376 0.059578754 6579300
-0.043836381 0.0079812082 0.059303142 6579300
-0.044704571 0.0085971039 0.059395783 6579300
-0.044531398 0.0072594136 0.058946762 6579300
-0.045965146 0.0045260922 0.057770591 6579300
-0.045842662 0.0070211692 0.058672573 6579300
-0.044418152 0.013002766 0.060998604 6579300
-0.04458718 0.010127098 0.059955001 6579300
-0.044641029 0.011495018 0.060432002 6579300
-0.045212798 0.0035929675 0.057548761 6579300
-0.041311014 0.0016110037 0.057192672 6579300
-0.042676192 0.0086711189 0.059643183 6579300
-0.041542482 0.0075936173 0.059264775 6579300
-0.041238111 0.0060426001 0.058705065 6579300
-0.040940765 0.0046699001 0.058198258 6579300
-0.040833078 0.0030324857 0.057619423 6579300
-0.04255956 0.024894845 0.065194264 6579300
-0.043275137 0.022593644 0.06435968 6579300
-0.043021873 0.023912411 0.064827606 6579300
-0.043603711 0.020573147 0.063646697 6579300
-0.042397115 0.029844081 0.066898279 6579300
-0.042399667 0.020905174 0.063839845 6579300
-0.043177254 0.019654762 0.063360669 6579300
-0.043972369 0.018636579 0.06295979 6579300
-0.041456409 0.023709532 0.064768821 6579300
-0.040164974 0.024259062 0.064843528 6579300
-0.040508695 0.022885693 0.064393893 6579300
-0.041107349 0.024876798 0.065145783 6579300
-0.040085617 0.02724804 0.065883078 6579300
-0.041541759 0.022718364 0.064429477 6579300
-0.040595461 0.028492831 0.066365503 6579300
-0.041323084 0.026136359 0.065599389 6579300
-0.040853199 0.030336577 0.067014918 6579300
-0.041598931 0.03125371 0.067361675 6579300
-0.041483417 0.027934194 0.066221334 6579300
-0.04140513 0.029246898 0.066666774 6579300
-0.043035384 0.016947201 0.062420737 6579300
-0.042708632 0.018140212 0.062858783 6579300
-0.042119455 0.019041117 0.063206255 6579300
-0.040686764 0.017820464 0.062690414 6579300
-0.038926933 0.032696247 0.067599699 6579300
-0.039314069 0.031255685 0.067147233 6579300
-0.040768821 0.031822275 0.06746196 6579300
-0.037863392 0.031834316 0.067049131 6579300
-0.03860537 0.03045222 0.066753097 6579300
-0.038660184 0.033820029 0.067935288 6579300
-0.04093359 0.037065744 0.06930615 6579300
-0.039726671 0.04267941 0.071159169 6579300
-0.04033649 0.036200326 0.068979047 6579300
-0.041698661 0.034850851 0.068590313 6579300
-0.040167987 0.039381769 0.070056483 6579300
-0.040430278 0.033529595 0.068022713 6579300
-0.042170051 0.032466762 0.067799427 6579300
-0.040589899 0.03454135 0.068405427 6579300
-0.038834225 0.039660748 0.069974065 6579300
-0.039296634 0.040879246 0.070474759 6579300
-0.03820831 0.040636081 0.070207112 6579300
-0.03980675 0.037101518 0.069249772 6579300
-0.039221551 0.043737628 0.071453981 6579300
-0.0391718 0.038688298 0.069693469 6579300
-0.03781021 0.034809537 0.068083726 6579300
-0.038922496 0.035147369 0.068428874 6579300
-0.036747001 0.039864551 0.069592044 6579300
-0.036321759 0.041178413 0.069927357 6579300
-0.035893705 0.039162088 0.069029301 6579300
-0.035567917 0.040516276 0.069401562 6579300
-0.037003849 0.053940818 0.07461293 6579300
-0.037625667 0.05156292 0.073894471 6579300
-0.037106372 0.050763022 0.073527128 6579300
-0.037740756 0.048971385 0.073014416 6579300
-0.034982532 0.055601809 0.074651331 6579300
-0.035955597 0.054728281 0.074634023 6579300
-0.034850128 0.054323114 0.074156307 6579300
-0.035412297 0.056997862 0.075277843 6579300
-0.036321566 0.052313905 0.07388518 6579300
-0.035572801 0.053152125 0.073957592 6579300
-0.037463386 0.047541492 0.072442971 6579300
-0.036832824 0.048500601 0.072667651 6579300
-0.033775091 0.054550692 0.073848106 6579300
-0.030842582 0.058981452 0.073946685 6579300
-0.031880733 0.055751275 0.073338293 6579300
-0.032492653 0.05298423 0.072617501 6579300
-0.032941233 0.053822577 0.073202714 6579300
-0.033314425 0.052328862 0.072826624 6579300
-0.042170808 0.0042816596 0.058154128 6579300
-0.042529725 0.0056754714 0.058626283 6579300
-0.043714162 0.0035322076 0.057807583 6579300
-0.044942018 0.00012743405 0.056490652 6579300
-0.043794572 0.0053699235 0.058430683 6579300
-0.045406621 0.001404458 0.056805067 6579300
-0.043362331 0.0069181081 0.059019413 6579300
-0.045320205 0.0025477903 0.05718559 6579300
-0.044437103 0.0044858297 0.058002274 6579300
-0.042551592 0.0010386807 0.05702088 6579300
-0.042001966 0.003298129 0.057815332 6579300
-0.044259593 0.0018788857 0.057205215 6579300
-0.04180748 0.011027284 0.060420461 6579300
-0.041562364 0.01229559 0.060850952 6579300
-0.042289838 0.0098692616 0.060035363 6579300
-0.04144441 0.013320698 0.061201368 6579300
-0.042389471 0.014228798 0.061544117 6579300
-0.042721778 0.013113226 0.061169062 6579300
-0.042889252 0.011210618 0.060517102 6579300
-0.044391438 0.014902062 0.061663311 6579300
-0.043483473 0.010272956 0.060159996 6579300
-0.043353766 0.012276633 0.060852841 6579300
-0.043123197 0.015286772 0.061884992 6579300
-0.04420121 0.01621012 0.062110223 6579300
-0.039089873 0.015655732 0.061648946 6579300
-0.039591048 0.012176481 0.060558841 6579300
-0.039128073 0.014541134 0.061264571 6579300
-0.040365491 0.01284212 0.060949489 6579300
-0.040319368 0.0056428504 0.058449823 6579300
-0.040072933 0.011237022 0.060348213 6579300
-0.040416308 0.0077536823 0.05919572 6579300
-0.040150627 0.0095135877 0.05976364 6579300
-0.038977839 0.018861948 0.062762715 6579300
-0.039148092 0.017758017 0.06242032 6579300
-0.03956499 0.016782332 0.062183965 6579300
-0.040752411 0.021508968 0.063959651 6579300
-0.039656367 0.021700786 0.063898124 6579300
-0.04151351 0.020220673 0.063580461 6579300
-0.039862487 0.020674173 0.063568935 6579300
-0.040075924 0.019087769 0.063058823 6579300
-0.036832068 0.029580481 0.065877311 6579300
-0.037302498 0.027348956 0.065255269 6579300
-0.039183099 0.02309902 0.064299703 6579300
-0.038281836 0.025605747 0.064947203 6579300
-0.038912963 0.024167234 0.064602427 6579300
-0.037934583 0.024526305 0.064472228 6579300
-0.038655266 0.020547552 0.063267067 6579300
-0.038455095 0.022117283 0.063767835 6579300
-0.038113952 0.023251239 0.064070508 6579300
-0.037914615 0.029515661 0.066233478 6579300
-0.036750939 0.033135295 0.067153215 6579300
-0.036976583 0.030591356 0.066318594 6579300
-0.037675805 0.038538285 0.069371358 6579300
-0.03845872 0.037404299 0.069144368 6579300
-0.038162593 0.036060076 0.068579033 6579300
-0.036410686 0.036755878 0.068364508 6579300
-0.037049066 0.035838056 0.06823273 6579300
-0.037474725 0.036807116 0.068685316 6579300
-0.036706802 0.037821684 0.068849489 6579300
-0.036702666 0.034350421 0.067591049 6579300
-0.038593698 0.04471514 0.071688518 6579300
-0.037554234 0.044654757 0.071496189 6579300
-0.036302418 0.044205531 0.070985071 6579300
-0.037426695 0.043510634 0.071074784 6579300
-0.037330922 0.041919548 0.070484295 6579300
-0.036300354 0.043108061 0.070596851 6579300
-0.037272446 0.046238419 0.071963809 6579300
-0.038308866 0.046214025 0.072144277 6579300
-0.035369724 0.037783336 0.068284065 6579300
-0.034381043 0.043995976 0.070156872 6579300
-0.035273846 0.043377627 0.070348248 6579300
-0.034794278 0.045161307 0.07080707 6579300
-0.035147704 0.042415015 0.0699315 6579300
-0.035644785 0.045869678 0.071387053 6579300
-0.03576291 0.047011409 0.07183063 6579300
-0.033601832 0.048002336 0.071285844 6579300
-0.034169964 0.046808634 0.071145698 6579300
-0.035958678 0.051041428 0.073328882 6579300
-0.035542667 0.049968023 0.072845697 6579300
-0.036545198 0.049793158 0.07306397 6579300
-0.034192268 0.052913096 0.073431626 6579300
-0.034765422 0.050924294 0.072913714 6579300
-0.035136059 0.047859542 0.071934178 6579300
-0.035802018 0.048501458 0.072402939 6579300
-0.03377587 0.050965142 0.072531767 6579300
-0.034055412 0.04974176 0.072186552 6579300
-0.03246155 0.059510078 0.075140148 6579300
-0.031404525 0.059975132 0.074755885 6579300
-0.033858445 0.058409154 0.075269617 6579300
-0.034287613 0.057301015 0.07502313 6579300
-0.03384335 0.056235604 0.074507587 6579300
-0.035266567 0.058471031 0.075748928 6579300
-0.03321927 0.057415567 0.07469327 6579300
-0.032784086 0.056553651 0.074138381 6579300
-0.040569834 0.01446987 0.061533686 6579300
-0.040317167 0.015555503 0.061868612 6579300
-0.041410748 0.016504368 0.062315945 6579300
-0.039753165 0.029286552 0.066536106 6579300
-0.039821338 0.026189795 0.065484487 6579300
-0.038522772 0.027209658 0.065569438 6579300
-0.038561445 0.028637558 0.066090859 6579300
-0.045008261 0.011728521 0.031532787 6579300
-0.044067949 0.0019533981 0.027663078 6579300
-0.044597086 0.0070980135 0.029666342 6579300
-0.044499472 0.0055048554 0.028981486 6579300
-0.044724993 0.0088101281 0.030379942 6579300
-0.044897746 0.01053196 0.031054633 6579300
-0.044151615 0.0094264969 0.031239918 6579300
-0.045830015 0.013517053 0.031608257 6579300
-0.044088408 0.003149437 0.028228654 6579300
-0.045239527 0.0080899131 0.029526422 6579300
-0.042182229 0.0086368304 0.03241802 6579300
-0.042685177 0.0076177139 0.031644545 6579300
-0.042964373 0.0097993836 0.032344695 6579300
-0.042062998 0.010839231 0.033386044 6579300
-0.040785532 0.0038015975 0.031321708 6579300
-0.039877526 0.00053566258 0.030546121 6579300
-0.041647978 0.0075843176 0.032329541 6579300
-0.040685751 0.0022818707 0.030774029 6579300
-0.041633595 0.0057561398 0.031609558 6579300
-0.046005812 0.023977425 0.036160067 6579300
-0.046235036 0.016996866 0.032868326 6579300
-0.04659662 0.026805125 0.036924288 6579300
-0.046543647 0.025540283 0.036406528 6579300
-0.04614035 0.019115057 0.033888098 6579300
-0.045708366 0.021180242 0.035165153 6579300
-0.047259662 0.029279137 0.037471257 6579300
-0.045704901 0.02001602 0.03465087 6579300
-0.046198502 0.022311069 0.035259411 6579300
-0.044810731 0.024963055 0.037342135 6579300
-0.045016561 0.027980287 0.038444459 6579300
-0.045093346 0.023960182 0.036766566 6579300
-0.044030681 0.024152178 0.037477762 6579300
-0.044382371 0.022895174 0.036757849 6579300
-0.045636669 0.026989203 0.037660889 6579300
-0.04571208 0.029390505 0.038594387 6579300
-0.047342069 0.031658601 0.038446043 6579300
-0.046939209 0.03015741 0.038097523 6579300
-0.046353087 0.028829454 0.037941046 6579300
-0.045523006 0.02273283 0.035993017 6579300
-0.045685068 0.018026624 0.03378192 6579300
-0.044277176 0.017595215 0.034717858 6579300
-0.043364901 0.018032523 0.035447642 6579300
-0.045039758 0.031952441 0.039941777 6579300
-0.045326702 0.0333203 0.040324826 6579300
-0.046302199 0.032099646 0.039240856 6579300
-0.044961765 0.030697325 0.039527282 6579300
-0.043981511 0.032400362 0.040630609 6579300
-0.047926359 0.044697907 0.043366358 6579300
-0.046942111 0.034967128 0.040049735 6579300
-0.047569182 0.038842525 0.041218121 6579300
-0.047356952 0.040221609 0.041916326 6579300
-0.046902638 0.037989158 0.041303653 6579300
-0.047457125 0.03362947 0.039171953 6579300
-0.047288191 0.037098035 0.040691346 6579300
-0.0465624 0.035739478 0.040600702 6579300
-0.045497585 0.034498181 0.040709432 6579300
-0.046259433 0.039512802 0.042240888 6579300
-0.046711404 0.042302266 0.043082155 6579300
-0.04711296 0.043548625 0.043358773 6579300
-0.043828651 0.03509324 0.041691937 6579300
-0.0452816 0.035499312 0.041185275 6579300
-0.04429226 0.034316774 0.041209646 6579300
-0.043404568 0.033591527 0.041304369 6579300
-0.043959245 0.042946417 0.044475731 6579300
-0.044520129 0.040884793 0.043539852 6579300
-0.043200232 0.040710989 0.043884493 6579300
-0.043284524 0.039611761 0.043473065 6579300
-0.04318985 0.037759159 0.042836543 6579300
-0.047766242 0.052473865 0.046439014 6579300
-0.047266547 0.049061008 0.045383308 6579300
-0.047348838 0.05121756 0.046165336 6579300
-0.047029365 0.054445837 0.047553949 6579300
-0.04755817 0.056262374 0.047986459 6579300
-0.047458362 0.053318299 0.046912674 6579300
-0.047174849 0.047679119 0.044895206 6579300
-0.046073928 0.047438618 0.045309823 6579300
-0.046817388 0.057533447 0.04874428 6579300
-0.046015114 0.05528551 0.048212748 6579300
-0.045844547 0.053228147 0.04752985 6579300
-0.046302218 0.05116979 0.046627682 6579300
-0.045125227 0.054379113 0.04819579 6579300
-0.045814991 0.05221815 0.047175728 6579300
-0.044306628 0.0535997 0.048167571 6579300
-0.043980852 0.054753345 0.048622929 6579300
-0.042366676 0.05064033 0.047447048 6579300
-0.041969907 0.059066229 0.050318379 6579300
-0.042441159 0.056352943 0.049392052 6579300
-0.042678092 0.058164295 0.050012369 6579300
-0.042333938 0.049414955 0.047029715 6579300
-0.043158423 0.052425269 0.047983307 6579300
-0.043336049 0.053946856 0.048482403 6579300
-0.042962186 0.055312138 0.049000561 6579300
-0.042555761 0.0051383106 0.030669129 6579300
-0.04329678 0.0064837434 0.030677749 6579300
-0.042029317 0.0041592787 0.030652491 6579300
-0.042890213 0.00061143591 0.028341187 6579300
-0.043234698 0.0038675817 0.029523388 6579300
-0.043585978 0.0048416858 0.029574482 6579300
-0.041785616 0.00056125398 0.029301859 6579300
-0.042365011 0.003028695 0.029869843 6579300
-0.041131586 0.0012605611 0.030094458 6579300
-0.042117476 0.0015872964 0.029456908 6579300
-0.042950884 0.0016803305 0.02879433 6579300
-0.043268517 0.013109367 0.03351127 6579300
-0.043970577 0.011966716 0.032556381 6579300
-0.043016821 0.011698267 0.033093326 6579300
-0.044182692 0.010897449 0.031905226 6579300
-0.044863991 0.014948049 0.033132337 6579300
-0.04480863 0.013075605 0.032342527 6579300
-0.043487672 0.0085577713 0.031454928 6579300
-0.044192072 0.01647706 0.034306079 6579300
-0.045824993 0.015869698 0.032716602 6579300
-0.045052331 0.016579062 0.033639964 6579300
-0.041334912 0.01409839 0.034955364 6579300
-0.041263033 0.012428567 0.034375809 6579300
-0.040972687 0.011357795 0.034092918 6579300
-0.040505644 0.0069914926 0.032678884 6579300
-0.040542822 0.0087366533 0.033298377 6579300
-0.041860338 0.015436395 0.035249766 6579300
-0.040531088 0.0048105777 0.03185875 6579300
-0.042307705 0.01235937 0.033849809 6579300
-0.041111242 0.0095555652 0.033385418 6579300
-0.04166102 0.018468127 0.036425848 6579300
-0.042049322 0.016427131 0.035541482 6579300
-0.042150233 0.017461222 0.035881758 6579300
-0.042608149 0.019140452 0.036287546 6579300
-0.043397885 0.020325998 0.036340803 6579300
-0.044418372 0.021097133 0.036026023 6579300
-0.043023691 0.021721579 0.037071507 6579300
-0.044609856 0.020219857 0.035563458 6579300
-0.044016652 0.019175623 0.035503924 6579300
-0.042098768 0.030241169 0.040464591 6579300
-0.041842323 0.023460913 0.038157623 6579300
-0.042559661 0.026712615 0.039093684 6579300
-0.043140844 0.024596967 0.038084034 6579300
-0.041867487 0.020643355 0.037141874 6579300
-0.042153355 0.025154689 0.038677432 6579300
-0.042038281 0.022044908 0.037590273 6579300
-0.043554727 0.030644257 0.040156983 6579300
-0.042297013 0.033997905 0.041730404 6579300
-0.042683743 0.032235231 0.041025329 6579300
-0.045788758 0.037951808 0.041886676 6579300
-0.0446188 0.038397234 0.042590786 6579300
-0.04511825 0.040104043 0.043034397 6579300
-0.045380872 0.036849089 0.041657466 6579300
-0.042852405 0.036154334 0.042368624 6579300
-0.043798488 0.036802586 0.042300627 6579300
-0.046566445 0.046291105 0.044652183 6579300
-0.045489416 0.046324734 0.04517518 6579300
-0.04474571 0.045150068 0.044992965 6579300
-0.046033289 0.044386819 0.044220258 6579300
-0.045615226 0.04278776 0.043815065 6579300
-0.045420773 0.041550349 0.043436762 6579300
-0.046645429 0.045325194 0.044274013 6579300
-0.042538863 0.04546899 0.045654096 6579300
-0.042338375 0.04215527 0.044539981 6579300
-0.042532649 0.044360649 0.045275375 6579300
-0.042611975 0.038548056 0.043254629 6579300
-0.043512475 0.04402262 0.044984009 6579300
-0.043900684 0.046054635 0.045576289 6579300
-0.043243427 0.047307316 0.046195164 6579300
-0.045077585 0.05080669 0.04695056 6579300
-0.044304591 0.052590549 0.047805272 6579300
-0.04467367 0.049729638 0.046693277 6579300
-0.045654751 0.048554063 0.045930386 6579300
-0.045767132 0.049763363 0.046322376 6579300
-0.043616362 0.049087733 0.046721622 6579300
-0.043878857 0.050640848 0.047211137 6579300
-0.046247546 0.059962407 0.049863014 6579300
-0.045614123 0.057662245 0.049187303 6579300
-0.045764167 0.059001386 0.049604997 6579300
-0.044709954 0.055819582 0.048839144 6579300
-0.046073508 0.056760207 0.04872394 6579300
-0.04359711 0.05631021 0.049225621 6579300
-0.044354003 0.057204481 0.049417067 6579300
-0.044035759 0.058617085 0.049966227 6579300
-0.043801606 0.01478282 0.033860292 6579300
-0.042671524 0.014064155 0.034304567 6579300
-0.04332697 0.015919447 0.034652811 6579300
-0.044427034 0.029561516 0.039370805 6579300
-0.04404331 0.02558383 0.038046487 6579300
