# .PCD v0.7 - Point Cloud Data file format
VERSION 0.7
FIELDS x y z rgb
SIZE 4 4 4 4
TYPE F F F U
COUNT 1 1 1 1
WIDTH 1057
HEIGHT 1
VIEWPOINT 0 0 0 1 0 0 0
POINTS 1057
DATA ascii
0.019251702 0.0018815149 0.00041843584 6579300
0.019364817 0.0018314685 0.0070659537 6579300
0.019491807 0.0017752841 0.0053189392 6579300
0.019244783 0.001884576 0.0021114962 6579300
0.019427853 0.0018035793 0.0080719562 6579300
0.019433748 0.0018009711 0.013413094 6579300
0.019425707 0.0018045291 0.0040720273 6579300
0.019190857 0.0019084351 0.0025766653 6579300
0.019309051 0.0018561418 0.0086214403 6579300
0.019491941 0.0017752243 0.0098448871 6579300
0.019321792 0.0018505043 0.0075462302 6579300
0.019299721 0.0018602691 0.0059980941 6579300
0.019438805 0.0017987335 0.01077794 6579300
0.019254761 0.0018801611 0.00093361357 6579300
0.01940552 0.0018134605 0.011513096 6579300
0.01944028 0.0017980811 0.0047625005 6579300
0.019372372 0.001828126 0.012771195 6579300
0.018884243 0.0020312548 0.011506847 6579300
0.01875555 0.0020810245 0.002741067 6579300
0.01885836 0.0020412644 0.008961603 6579300
0.018804565 0.0020620686 0.00089033647 6579300
0.018869104 0.0020371096 0.010243557 6579300
0.018906157 0.00202278 0.0012458409 6579300
0.018787101 0.0020688225 0.016150983 6579300
0.018968059 0.0019988411 0.0058200816 6579300
0.018753596 0.0020817802 0.011105934 6579300
0.018798525 0.0020644048 0.012944309 6579300
0.018885946 0.0020305968 0.0022440262 6579300
0.01877364 0.0020740288 0.011922998 6579300
0.018852774 0.0020434251 0.00039874826 6579300
0.0187876 0.0020686295 0.013349337 6579300
0.019040715 0.0019707428 0.0016919459 6579300
0.018383419 0.0022060962 0.015774744 6579300
0.018490767 0.0021704924 0.01266657 6579300
0.018456588 0.0021818285 0.01900471 6579300
0.018394327 0.0022024787 0.018145494 6579300
0.018574206 0.0021428184 0.014586974 6579300
0.018391509 0.0022034133 0.0027799588 6579300
0.018397845 0.0022013115 0.0085733477 6579300
0.018568397 0.0021447453 0.017698865 6579300
0.018379793 0.0022072992 0.011752972 6579300
0.018517982 0.0021614661 0.010520265 6579300
0.018440122 0.00218729 0.0045582782 6579300
0.018643385 0.0021198743 0.019611254 6579300
0.018386627 0.0022050326 0.00077388139 6579300
0.01865528 0.002115929 0.0093260324 6579300
0.018630987 0.0021239859 0.007234185 6579300
0.018661361 0.0021139118 0.0016965745 6579300
0.018677646 0.0021085104 0.0068572187 6579300
0.0187064 0.0020989741 0.0037734411 6579300
0.018532556 0.0021566323 0.0054618041 6579300
0.018635653 0.0021224383 0.0098008029 6579300
0.018664375 0.002112912 0.015530134 6579300
0.01868484 0.0021061248 0.005038857 6579300
0.018586254 0.0021388226 0.0076647582 6579300
0.018699223 0.0021013543 0.0064018862 6579300
0.018633503 0.0021231512 0.013707411 6579300
0.018524578 0.0021592784 0.0060504647 6579300
0.018503316 0.0021663303 0.0031704917 6579300
0.018087363 0.0022896829 0.0058278092 6579300
0.018106449 0.0022843406 0.0065895398 6579300
0.018189941 0.0022609718 0.012975689 6579300
0.018073577 0.0022935409 0.010162262 6579300
0.018203456 0.0022571892 0.019612195 6579300
0.018253895 0.002243072 0.013943041 6579300
0.018208494 0.002255779 0.016334804 6579300
0.018118648 0.0022809266 0.011238258 6579300
0.018161437 0.00226895 0.018570723 6579300
0.018136503 0.0022759286 0.010603013 6579300
0.018044544 0.0023016669 0.012369518 6579300
0.018210668 0.0022551704 0.0036301794 6579300
0.018340588 0.0022188073 0.016780335 6579300
0.018308949 0.0022276628 0.0079358844 6579300
0.018300487 0.0022300312 0.001614408 6579300
0.018273694 0.0022375302 0.013478013 6579300
0.018177167 0.0022645474 0.0051388866 6579300
0.018348975 0.0022164597 0.017206151 6579300
0.018209482 0.0022555026 0.0022195068 6579300
0.018314412 0.0022261336 0.004075422 6579300
0.018229008 0.0022500376 0.0070566796 6579300
0.018211696 0.0022548826 0.0091507006 6579300
0.018333293 0.002220849 0.00027990475 6579300
0.018304305 0.0022289625 0.015302341 6579300
0.017803751 0.0023569635 0.013311964 6579300
0.01797479 0.0023176973 0.016023677 6579300
0.01776815 0.0023651363 0.014450344 6579300
0.017797483 0.0023584021 0.016752642 6579300
0.017803615 0.0023569944 0.013915154 6579300
0.017781584 0.0023620522 0.018685674 6579300
0.017978478 0.0023168507 0.019023182 6579300
0.017775891 0.0023633591 0.0036010558 6579300
0.017796654 0.0023585923 0.019888507 6579300
0.017813325 0.0023547653 0.015521288 6579300
0.017751541 0.0023689494 0.005172845 6579300
0.017989678 0.0023142796 0.017945448 6579300
0.017981857 0.0023160754 0.017430775 6579300
0.017976977 0.0023171958 0.0028359718 6579300
0.018003076 0.0023112036 0.00073956675 6579300
0.017939825 0.0023257246 0.0011080529 6579300
0.017891951 0.0023367151 0.0078714024 6579300
0.017980777 0.0023163233 0.011603347 6579300
0.017763747 0.002366147 5.9281676e-05 6579300
0.017839702 0.0023487099 0.006193208 6579300
0.017924082 0.0023293388 0.0074496847 6579300
0.018014656 0.0023085454 0.0032578255 6579300
0.017961835 0.0023206715 0.0047900709 6579300
0.017877351 0.0023400669 0.0015878042 6579300
0.017990498 0.0023140917 0.014939429 6579300
0.017836129 0.0023495303 0.0024463711 6579300
0.017599484 0.0023966243 0.016105894 6579300
0.017500062 0.0024146016 0.007730999 6579300
0.017567707 0.0024023701 0.015229817 6579300
0.017593781 0.0023976557 0.011116606 6579300
0.017499102 0.0024147748 0.018976109 6579300
0.017716875 0.0023753983 0.019424932 6579300
0.017588222 0.0023986606 0.017164657 6579300
0.01750165 0.0024143143 0.010718595 6579300
0.017520271 0.0024109473 0.0070491941 6579300
0.017573508 0.0024013212 0.0044854996 6579300
0.017696312 0.0023791164 0.0084259752 6579300
0.017682945 0.0023815332 0.012645883 6579300
0.017646605 0.0023881041 0.010128128 6579300
0.017650703 0.0023873632 0.0088152681 6579300
0.017660342 0.0023856203 0.0094202626 6579300
0.01769142 0.0023800009 0.012022118 6579300
0.017555466 0.0024045836 0.0055072946 6579300
0.017385101 0.0024310125 0.01176388 6579300
0.017259452 0.002447831 0.01245501 6579300
0.017373679 0.0024325412 0.015572639 6579300
0.017363314 0.0024339287 0.013935748 6579300
0.017266214 0.0024469257 0.0032022591 6579300
0.01737616 0.0024322092 0.013410504 6579300
0.01733917 0.0024371604 0.014676046 6579300
0.017382462 0.0024313657 0.018125353 6579300
0.017372942 0.0024326399 0.016854441 6579300
0.017145194 0.002457079 0.015173734 6579300
0.017188516 0.0024535982 0.018641964 6579300
0.017198529 0.0024527935 0.010474841 6579300
0.017158771 0.0024559882 0.017681668 6579300
0.017467516 0.0024199809 0.0038534626 6579300
0.017457241 0.002421356 0.00040359717 6579300
0.01739976 0.0024290504 0.0091367215 6579300
0.017344728 0.0024364165 0.0027637444 6579300
0.017389806 0.0024303827 0.0021185197 6579300
0.017400406 0.0024289638 0.0066891345 6579300
0.017362146 0.0024340851 0.0062880507 6579300
0.017173996 0.0024547649 0.0084257144 6579300
0.017178772 0.002454381 0.0012843803 6579300
0.017185966 0.0024538031 0.0053576245 6579300
0.017118653 0.0024592115 0.0074598743 6579300
0.017079059 0.0024623929 0.0044627199 6579300
0.017191976 0.0024533202 0.0017869353 6579300
0.016929647 0.002465558 0.019274093 6579300
0.017002624 0.0024641638 0.01624166 6579300
0.017018141 0.0024638672 0.017320646 6579300
0.016974092 0.0024647089 0.011992224 6579300
0.016922833 0.0024656882 0.0091016507 6579300
0.017020866 0.002463815 0.014292582 6579300
0.016982296 0.0024645519 0.01477982 6579300
0.016957991 0.0024650164 0.013812389 6579300
0.016973294 0.002464724 0.0096825697 6579300
0.016998682 0.002464239 0.0049006795 6579300
0.017059011 0.0024630863 0.0037478679 6579300
0.017013356 0.0024639587 0.0057504587 6579300
0.016871817 0.002464388 0.019963447 6579300
0.016740285 0.0024577368 0.011024169 6579300
0.01676953 0.0024592157 0.015582391 6579300
0.016815111 0.0024615205 0.0131293 6579300
0.016880961 0.0024648502 0.0062246635 6579300
0.016876431 0.0024646211 0.011580993 6579300
0.016864203 0.0024640029 0.012442214 6579300
0.016842242 0.0024628923 0.0014322064 6579300
0.0168812 0.0024648623 0.0079990737 6579300
0.016873941 0.0024644954 0.0070907897 6579300
0.016899779 0.0024658018 0.00083897274 6579300
0.016841222 0.0024628409 0.0066408981 6579300
0.016811591 0.0024613424 0.0041387505 6579300
0.017713292 -0.011278378 0.013400452 6579300
0.018159501 -0.010505521 0.01775445 6579300
0.017761787 -0.011194381 0.013935164 6579300
0.017778452 -0.011165515 0.012943753 6579300
0.018259576 -0.010332188 0.015214353 6579300
0.01815344 -0.010516018 0.015926605 6579300
0.017721828 -0.011263592 0.0027877854 6579300
0.017895812 -0.010962244 0.0065488298 6579300
0.018442605 -0.010015171 0.017755654 6579300
0.017837806 -0.011062714 0.011000484 6579300
0.01809511 -0.010617049 0.015536374 6579300
0.018258806 -0.010333519 0.01733779 6579300
0.018045954 -0.010702189 0.010247121 6579300
0.017799268 -0.011129462 0.012488749 6579300
0.018032184 -0.010726041 0.00911335 6579300
0.01771261 -0.011279557 0.016831854 6579300
0.017953752 -0.010861889 0.0079676872 6579300
0.017851677 -0.011038686 0.010377923 6579300
0.018568827 -0.0097965486 0.019903766 6579300
0.017810095 -0.011110711 0.0058347136 6579300
0.018427126 -0.010041981 0.019335963 6579300
0.017851936 -0.011038238 0.011621629 6579300
0.017980861 -0.010814933 0.01715507 6579300
0.018358504 -0.010160836 0.016023144 6579300
0.018205348 -0.01042611 0.01944386 6579300
0.018091233 -0.010623764 0.0085162222 6579300
0.017814636 -0.011102844 0.0093225623 6579300
0.017808463 -0.011113535 0.0088170031 6579300
0.017975334 -0.010824506 0.019149506 6579300
0.017830662 -0.011075085 0.0035879239 6579300
0.018035805 -0.010719769 0.0096051078 6579300
0.018226163 -0.010390059 0.012704186 6579300
0.017989663 -0.010799687 0.012740497 6579300
0.018231494 -0.010380823 0.016441712 6579300
0.018198512 -0.01043795 0.019066798 6579300
0.017729184 -0.011250853 0.014873091 6579300
0.017987022 -0.010804262 0.013650631 6579300
0.017724417 -0.011259107 0.016451348 6579300
0.017766919 -0.011185492 0.0076773325 6579300
0.018124899 -0.010565455 0.012112582 6579300
0.017869849 -0.011007214 0.0099885296 6579300
0.018373143 -0.010135483 0.014684077 6579300
0.017822042 -0.011090016 0.018605649 6579300
0.018106638 -0.010597084 0.014001115 6579300
0.017806668 -0.011116645 0.0024225875 6579300
0.018379692 -0.010124138 0.015543921 6579300
0.018555893 -0.0098189507 0.019000996 6579300
0.018002067 -0.010778203 0.011360119 6579300
0.017808765 -0.011113014 0.0072943559 6579300
0.017781205 -0.011160747 0.018120455 6579300
0.018155932 -0.0105117 0.011000726 6579300
0.018458648 -0.0099873822 0.016432894 6579300
0.017881066 -0.010987786 0.016085748 6579300
0.017738247 -0.011235155 0.0010450627 6579300
0.01823847 -0.010368742 0.018210325 6579300
0.017931009 -0.01090128 0.013256303 6579300
0.017802646 -0.01112361 0.014453601 6579300
0.018364381 -0.010150659 0.0197377 6579300
0.018503034 -0.0099105034 0.018567748 6579300
0.018040286 -0.010712007 0.014759926 6579300
0.017853854 -0.011034915 0.017678974 6579300
0.017891251 -0.010970145 0.019777382 6579300
0.018280799 -0.010295428 0.014264549 6579300
0.017852088 -0.011037976 0.0049192384 6579300
0.017951518 -0.010865755 0.015206504 6579300
0.018053958 -0.010688325 0.016647799 6579300
0.018226549 -0.010389389 0.013670424 6579300
0.018336052 -0.010199727 0.016860843 6579300
0.018206704 -0.010423763 0.0099293115 6579300
0.018275701 -0.010304258 0.004427589 6579300
0.01830896 -0.010246649 0.012227499 6579300
0.018219136 -0.010402229 0.010622219 6579300
0.018283216 -0.010291238 0.0075232354 6579300
0.018367244 -0.010145701 0.0049335202 6579300
0.018339848 -0.01019315 0.0039231298 6579300
0.018536109 -0.0098532168 0.013584353 6579300
0.018556116 -0.0098185623 0.0017036544 6579300
0.018556369 -0.0098181255 0.013959073 6579300
0.018166287 -0.010493768 0.0031576823 6579300
0.017811086 -0.011108992 0.0020048532 6579300
0.018306039 -0.010251709 0.011300539 6579300
0.017933533 -0.010896909 0.0013606433 6579300
0.018470891 -0.0099661779 0.0042815567 6579300
0.018072082 -0.010656935 0.0002125841 6579300
0.01845156 -0.0099996598 0.0059217364 6579300
0.018220386 -0.010400066 0.0057994523 6579300
0.018500419 -0.0099150334 0.0096476907 6579300
0.018050304 -0.010694655 0.0056336359 6579300
0.018197393 -0.01043989 0.0011917397 6579300
0.018497705 -0.0099197337 0.012561955 6579300
0.01834834 -0.010178443 0.0014933868 6579300
0.018242171 -0.010362333 0.0052120569 6579300
0.018513422 -0.0098925103 0.010761847 6579300
0.018583374 -0.0097713498 0.003064062 6579300
0.01815358 -0.010515776 0.00072673347 6579300
0.018436663 -0.010025462 0.0079451958 6579300
0.018304475 -0.01025442 0.0062022209 6579300
0.018329954 -0.010210287 0.0020627789 6579300
0.018509459 -0.009899375 0.015239339 6579300
0.018045923 -0.010702243 0.00165428 6579300
0.018613055 -0.0097199436 5.8391164e-05 6579300
0.018391639 -0.010103445 0.010324013 6579300
0.018047391 -0.010699703 0.0027469127 6579300
0.018054964 -0.010686586 0.0045351773 6579300
0.0181539 -0.010515221 0.0038994588 6579300
0.018414509 -0.010063834 0.00043869496 6579300
0.018091781 -0.010622815 0.0071832053 6579300
0.018599508 -0.0097434074 0.0045550265 6579300
0.018148886 -0.010523905 0.0078338319 6579300
0.018414097 -0.010064546 0.0010552002 6579300
0.018350491 -0.010174715 0.008753825 6579300
0.018358309 -0.010161176 0.003498689 6579300
0.017892277 -0.010968367 0.0031792908 6579300
0.018298179 -0.010265323 0.011717505 6579300
0.018158687 -0.010506929 0.0022795275 6579300
0.018499751 -0.0099161919 0.0054020975 6579300
0.018624132 -0.0097007547 0.00093943044 6579300
0.018543383 -0.009840617 0.01743206 6579300
0.018387973 -0.010109796 0.012999491 6579300
0.01863192 -0.0096872682 0.011578681 6579300
0.018097447 -0.010613 0.0065635936 6579300
0.017863393 -0.011018394 0.00031842157 6579300
0.018630438 -0.009689834 0.0078313034 6579300
0.018594056 -0.0097528473 0.0083203353 6579300
0.017998459 -0.010784453 0.0052039595 6579300
0.018479219 -0.0099517535 0.0026290386 6579300
0.017952932 -0.010863307 0.003925126 6579300
0.018581877 -0.0097739445 0.003898808 6579300
0.018413568 -0.010065464 0.0091154734 6579300
0.018560585 -0.0098108239 0.0072451662 6579300
0.018437866 -0.01002338 0.0068394272 6579300
0.016272012 0.0023894825 0.011134974 6579300
0.01661939 0.0024404936 0.005764639 6579300
0.01529641 0.0022462187 0.011705413 6579300
0.016473774 0.0024191104 0.01298123 6579300
0.015551814 0.002283724 0.019189067 6579300
0.016053079 0.002357333 0.0077535561 6579300
0.015968103 0.0023448544 0.0081877857 6579300
0.016065639 0.0023591772 0.019745588 6579300
0.016265005 0.0023884533 0.012591675 6579300
0.01598878 0.0023478908 0.012194123 6579300
0.016246753 0.0023857732 0.0098567829 6579300
0.014775908 0.0021697849 0.018109851 6579300
0.016683105 0.0024498501 0.015208256 6579300
0.016364636 0.002403084 0.013368388 6579300
0.016419176 0.0024110931 0.0026578812 6579300
0.01641774 0.0024108819 0.012017396 6579300
0.016646158 0.0024444244 0.0036642794 6579300
0.01584905 0.0023273721 0.017261211 6579300
0.015515682 0.002278418 0.018688422 6579300
0.016722485 0.0024556329 0.010264051 6579300
0.015669806 0.0023010506 0.015565653 6579300
0.014765471 0.0021682521 0.018630143 6579300
0.016583912 0.0024352837 0.0084502716 6579300
0.015759723 0.0023142546 0.01340469 6579300
0.015696689 0.0023049985 0.011107045 6579300
0.016551251 0.0024304877 0.0051350128 6579300
0.016189728 0.0023773995 0.018578932 6579300
0.016220702 0.0023819478 0.0072652609 6579300
0.015188162 0.0022303229 0.017954154 6579300
0.015108163 0.0022185752 0.015388516 6579300
0.016328011 0.0023977056 0.0064847176 6579300
0.01611286 0.0023661116 0.010780373 6579300
0.014898476 0.0021877836 0.015737984 6579300
0.015196998 0.0022316205 0.012703413 6579300
0.016639028 0.0024433774 0.018376913 6579300
0.01476149 0.0021676675 0.016810566 6579300
0.016022524 0.0023528461 0.016719725 6579300
0.016495813 0.0024223467 0.0091865109 6579300
0.015624409 0.0022943842 0.012454757 6579300
0.015118464 0.0022200879 0.01352145 6579300
0.015167396 0.0022272735 0.018379429 6579300
0.016155919 0.0023724344 0.019066114 6579300
0.015880205 0.002331947 0.0070914212 6579300
0.014389958 0.0021131095 0.01979086 6579300
0.016209977 0.0023803727 0.0053682481 6579300
0.016637672 0.0024431781 0.002305062 6579300
0.016095968 0.002363631 0.01448089 6579300
0.015573926 0.0022869711 0.0098174103 6579300
0.016472152 0.002418872 0.019428344 6579300
0.016613927 0.0024396915 0.014571442 6579300
0.01524088 0.0022380643 0.013134006 6579300
0.016009999 0.0023510067 0.015353329 6579300
0.015407522 0.002262535 0.017512241 6579300
0.016138669 0.0023699014 0.017727178 6579300
0.015273012 0.0022427829 0.016977394 6579300
0.015897838 0.0023345365 0.0094465809 6579300
0.015153856 0.0022252852 0.019076755 6579300
0.015590096 0.0022893455 0.01386133 6579300
0.016565243 0.0024325424 0.017885992 6579300
0.016038941 0.0023552568 0.0062039369 6579300
0.01637711 0.0024049156 0.0042593963 6579300
0.016056728 0.0023578687 0.018116653 6579300
0.016638165 0.0024432507 0.017448943 6579300
0.015638374 0.0022964349 0.010682952 6579300
0.014824578 0.0021769318 0.017394572 6579300
0.016413474 0.0024102556 0.016964285 6579300
0.015803158 0.0023206328 0.014748089 6579300
0.01539633 0.0022608915 0.019668739 6579300
0.015776174 0.0023166703 0.012908292 6579300
0.016547957 0.0024300041 0.016151261 6579300
0.015724493 0.0023090811 0.015987845 6579300
0.016013343 0.0023514978 0.010411599 6579300
0.014506121 0.0021301676 0.019281138 6579300
0.015008772 0.00220398 0.016288415 6579300
0.016241116 0.0023849455 0.015886929 6579300
0.01620842 0.0023801441 0.013814235 6579300
0.015899887 0.0023348371 0.011688976 6579300
0.015100154 0.0022173992 0.014683386 6579300
0.015567316 0.0022860004 0.016580921 6579300
0.01655768 0.0024314318 0.018950481 6579300
0.016089451 0.0023626741 0.016322931 6579300
0.015790254 0.002318738 0.018389001 6579300
0.015607946 0.0022919667 0.012005878 6579300
0.015000669 0.0022027902 0.019648975 6579300
0.015284552 0.0022444774 0.0110661 6579300
0.016607357 0.0024387268 0.016609076 6579300
0.015358655 0.0022553592 0.014341245 6579300
0.015438473 0.0022670801 0.014893803 6579300
0.01621213 0.0023806889 0.004823186 6579300
0.014599176 0.0021438324 0.017758066 6579300
0.016673654 0.0024484622 0.0030030548 6579300
0.016174017 0.0023750921 0.0058304789 6579300
0.016150646 0.0023716602 0.0089782905 6579300
0.014448546 0.0021217128 0.0056429417 6579300
0.014881699 0.00218532 0.0085650422 6579300
0.014437423 0.0021200795 0.017344894 6579300
0.014442509 0.0021208264 0.010774231 6579300
0.015423256 0.0022648457 0.0070678168 6579300
0.015600114 0.0022908165 0.00024593936 6579300
0.014546691 0.002136125 0.0038391908 6579300
0.015745739 0.0023122011 0.0066717924 6579300
0.01625387 0.0023868184 0.0034906915 6579300
0.016058028 0.0023580596 0.0010751914 6579300
0.014129644 0.0020748831 0.016029052 6579300
0.014536298 0.0021345988 0.007726403 6579300
0.016372018 0.0024041678 0.00072062027 6579300
0.015459431 0.0022701577 0.0050607659 6579300
0.01428877 0.0020982502 0.0010032613 6579300
0.014503418 0.0021297706 0.010298007 6579300
0.015057987 0.0022112071 0.0067982785 6579300
0.01450342 0.002129771 0.015898105 6579300
0.015383887 0.0022590645 0.0064532193 6579300
0.014295597 0.0020992528 0.0041241813 6579300
0.014585716 0.0021418557 0.0013568264 6579300
0.015526394 0.0022799911 0.005808915 6579300
0.016344357 0.0024001063 0.0014303926 6579300
0.014230857 0.0020897458 0.011211265 6579300
0.015002576 0.0022030701 0.01206001 6579300
0.014200457 0.0020852818 0.0062530497 6579300
0.014106599 0.0020714991 0.0026992392 6579300
0.014444656 0.0021211416 0.0052006575 6579300
0.015159865 0.0022261676 0.0027705047 6579300
0.014306922 0.0021009159 0.0081852907 6579300
0.014878898 0.0021849086 0.0043834904 6579300
0.014816238 0.0021757071 0.012684904 6579300
0.014484806 0.0021270374 0.013003914 6579300
0.015682464 0.0023029093 0.0079005463 6579300
0.01451546 0.0021315392 0.0060304999 6579300
0.014627763 0.0021480301 0.012011354 6579300
0.014281814 0.0020972288 0.018573994 6579300
0.016596923 0.0024371943 0.0002908732 6579300
0.014723809 0.0021621343 0.011453744 6579300
0.014139809 0.0020763758 0.01205097 6579300
0.014725115 0.0021623261 0.00079456042 6579300
0.014517755 0.0021318758 0.0018421969 6579300
0.014922025 0.0021912416 0.0037289544 6579300
0.015909441 0.0023362401 0.0024383492 6579300
0.015439378 0.0022672131 0.0074684685 6579300
0.014529419 0.0021335888 0.0027180938 6579300
0.015755413 0.0023136218 0.0045996844 6579300
0.015264831 0.0022415814 0.0045863613 6579300
0.014333839 0.0021048684 0.00060719607 6579300
0.014557361 0.0021376919 0.0046716016 6579300
0.014427294 0.0021185922 0.014963922 6579300
0.015156809 0.0022257187 0.0013696124 6579300
0.014483634 0.0021268653 0.01545484 6579300
0.016481103 0.0024201865 0.0017965102 6579300
0.015717963 0.0023081221 0.00062588998 6579300
0.015315576 0.002249033 0.010142882 6579300
0.014836081 0.002178621 0.0091372225 6579300
0.014400898 0.002114716 0.0023723943 6579300
0.014852595 0.0021810459 0.0016900785 6579300
0.015746633 0.0023123322 0.0053745634 6579300
0.015838342 0.0023257995 0.0039804443 6579300
0.014895763 0.0021873852 0.0053191828 6579300
0.014781288 0.0021705749 0.0032194334 6579300
0.01540525 0.0022622014 0.0094484612 6579300
0.0154071 0.0022624731 0.0041913558 6579300
0.014286001 0.0020978437 0.016998814 6579300
0.015085622 0.0022152653 0.0097721638 6579300
0.014602174 0.0021442724 0.0071377186 6579300
0.015510493 0.002277656 0.003307099 6579300
0.015131271 0.0022219685 0.00222145 6579300
0.015933694 0.0023398018 0.0019274449 6579300
0.014106713 0.0020715159 0.019115664 6579300
0.014475477 0.0021256674 0.013664913 6579300
0.014944957 0.002194609 0.0073273112 6579300
0.015538245 0.0022817312 0.0024355345 6579300
0.015649356 0.0022980475 0.0012549157 6579300
0.015197332 0.0022316694 0.007899642 6579300
0.014287716 0.0020980956 0.016568581 6579300
0.01410095 0.0020706696 0.014350062 6579300
0.015094603 0.002216584 0.00025456853 6579300
0.015995517 0.0023488801 8.0983511e-05 6579300
0.014537454 0.0021347685 0.014365343 6579300
0.014844188 0.0021798115 0.010987556 6579300
0.015517519 0.0022786877 0.0037078741 6579300
0.01441943 0.0021174373 0.0033469058 6579300
0.014182901 0.0020827039 0.0014907671 6579300
0.014891435 0.0021867496 0.010276034 6579300
0.01486002 0.0021821363 0.013998577 6579300
0.014842856 0.0021796157 0.0063758022 6579300
0.015863333 0.0023294694 0.0030682588 6579300
0.014996086 0.0022021173 0.005961997 6579300
0.015551879 0.0022837333 0.0088403318 6579300
0.015435153 0.0022665926 0.0082234144 6579300
0.014465296 0.0021241724 0.0096441824 6579300
0.014253482 0.0020930686 0.018155588 6579300
0.015464094 0.0022708424 0.0019652727 6579300
0.013317117 -0.010530325 0.011150325 6579300
0.013323074 -0.01053422 0.0043243449 6579300
0.013305964 -0.010523033 0.0093815783 6579300
0.013314862 -0.010528851 0.0028015149 6579300
0.013293526 -0.010514902 0.0032014675 6579300
0.013379483 -0.010571098 0.011578507 6579300
0.013364577 -0.010561354 0.018476851 6579300
0.013353322 -0.010553995 0.015419247 6579300
0.013342348 -0.01054682 0.015879191 6579300
0.0133093 -0.010525214 0.016372474 6579300
0.013379453 -0.010571078 0.010034161 6579300
0.013342212 -0.010546732 0.016892072 6579300
0.013362675 -0.01056011 0.0086362651 6579300
0.01348755 -0.010633215 0.018113879 6579300
0.013401867 -0.010584464 0.019134717 6579300
0.013455895 -0.010615204 0.01743258 6579300
0.013506481 -0.010643986 0.007786728 6579300
0.013485955 -0.010632307 0.014881802 6579300
0.01344936 -0.010611487 0.014432053 6579300
0.013516656 -0.010649775 0.0050883079 6579300
0.013405596 -0.010586586 0.0059862612 6579300
0.01340401 -0.010585684 0.013890587 6579300
0.013466508 -0.010621243 0.0065312572 6579300
0.013422401 -0.010596148 0.0023509467 6579300
0.013458687 -0.010616792 0.0036151127 6579300
0.013390156 -0.010577802 0.011977036 6579300
0.013679975 -0.010730068 0.0032339313 6579300
0.013649453 -0.01071507 0.017765449 6579300
0.013591922 -0.010686799 0.019601725 6579300
0.013744331 -0.01075781 0.015170211 6579300
0.013723602 -0.010748961 0.016765984 6579300
0.013801501 -0.010782216 0.017331373 6579300
0.013724833 -0.010749487 0.009670415 6579300
0.013794117 -0.010779063 0.013269779 6579300
0.013779064 -0.010772637 0.010943348 6579300
0.013688107 -0.010733809 0.015575671 6579300
0.013518132 -0.010650538 0.0018257728 6579300
0.013638745 -0.010709807 0.0012356443 6579300
0.013613757 -0.010697528 0.0045753228 6579300
0.013550239 -0.010666315 0.0089995079 6579300
0.013517253 -0.010650106 0.0070498683 6579300
0.013824573 -0.010792064 0.010314193 6579300
0.013837144 -0.010797432 0.0092217829 6579300
0.013826547 -0.010792907 0.00083889149 6579300
0.013837999 -0.010797796 0.0021289475 6579300
0.013834206 -0.010796177 0.012693991 6579300
0.013830556 -0.010794618 0.0080234027 6579300
0.013749173 -0.010759877 0.0053712698 6579300
0.013787595 -0.010776279 0.0037408334 6579300
0.013834522 -0.010796312 0.0086996984 6579300
0.014020679 -0.010867587 0.019116497 6579300
0.014025502 -0.010869402 0.016279427 6579300
0.013997322 -0.010858801 0.018536793 6579300
0.013977529 -0.010851357 0.015846485 6579300
0.014001479 -0.010860365 0.013820339 6579300
0.013938865 -0.010836814 0.014716718 6579300
0.013909863 -0.010825904 0.0059006037 6579300
0.013992894 -0.010857136 0.0044032871 6579300
0.013876283 -0.010813273 0.0069797668 6579300
0.013898288 -0.01082155 0.0076085073 6579300
0.013900722 -0.010822467 0.011701946 6579300
0.013883942 -0.010816155 0.0028821998 6579300
0.014013062 -0.010864723 0.0065232953 6579300
0.014044031 -0.010876371 0.0033025758 6579300
0.013891523 -0.010819006 0.001511046 6579300
0.013869103 -0.010810573 0.00039019168 6579300
0.014283714 -0.010956468 0.0198605 6579300
0.014202412 -0.010930064 0.012279865 6579300
0.014244802 -0.010943831 0.019412234 6579300
0.014276573 -0.010954149 0.0074892649 6579300
0.014373831 -0.010985735 0.0049699629 6579300
0.014214719 -0.01093406 0.014423954 6579300
0.014365847 -0.010983142 0.016922949 6579300
0.014328335 -0.010970959 0.0061518275 6579300
0.014357539 -0.010980444 0.011242853 6579300
0.014346803 -0.010976957 0.0036730519 6579300
0.014342278 -0.010975488 0.0079231793 6579300
0.014220072 -0.010935799 0.017753199 6579300
0.01415938 -0.010916089 0.015504729 6579300
0.014282103 -0.010955945 0.011825045 6579300
0.014192488 -0.010926841 0.012768681 6579300
0.014180102 -0.010922818 0.00067237328 6579300
0.014293355 -0.010959599 0.0028212387 6579300
0.01420367 -0.010930473 0.010195593 6579300
0.014241096 -0.010942627 0.0016628044 6579300
0.014159804 -0.010916227 0.0055078133 6579300
0.014169155 -0.010919263 0.0094844354 6579300
0.014102996 -0.010897777 0.0011857525 6579300
0.014158014 -0.010915645 0.0024749001 6579300
0.014218955 -0.010935437 0.0087909158 6579300
0.014565649 -0.011038521 0.013094838 6579300
0.014577505 -0.01104177 0.0095092505 6579300
0.014514761 -0.011024577 0.018983196 6579300
0.014638734 -0.011058548 0.0088380864 6579300
0.014432682 -0.011002085 0.016301429 6579300
0.014529053 -0.011028493 0.015274339 6579300
0.014596677 -0.011047023 0.017424123 6579300
0.014486651 -0.011016875 0.014792442 6579300
0.014397633 -0.010992481 0.007083585 6579300
0.014560978 -0.011037241 0.0019894221 6579300
0.014546816 -0.011033361 0.0057763807 6579300
0.014408463 -0.010995449 0.014066513 6579300
0.014409537 -0.010995744 0.015860863 6579300
0.014588093 -0.011044671 0.0010642862 6579300
0.014446721 -0.011005932 0.010756516 6579300
0.014437577 -0.011003427 0.0041995565 6579300
0.014524974 -0.011027375 0.0084537854 6579300
0.014411396 -0.010996253 0.013443682 6579300
0.014421533 -0.01099903 0.003252012 6579300
0.01473738 -0.011082669 0.019638306 6579300
0.014965698 -0.011134995 0.0086202519 6579300
0.014874094 -0.011114001 0.009870586 6579300
0.014769329 -0.011089991 0.016613627 6579300
0.014959891 -0.011133664 0.0049695615 6579300
0.014950139 -0.011131429 0.017972805 6579300
0.014788428 -0.011094369 0.016151352 6579300
0.014902833 -0.011120588 0.005384977 6579300
0.014865267 -0.011111978 0.013623475 6579300
0.014851615 -0.011108849 0.014311761 6579300
0.014870811 -0.011113249 0.019186741 6579300
0.014955401 -0.011132635 0.0094774598 6579300
0.014761406 -0.011088176 0.01571212 6579300
0.01489962 -0.011119851 0.0014591219 6579300
0.014891921 -0.011118087 0.00028258411 6579300
0.014797603 -0.011096471 0.010279382 6579300
0.014715094 -0.011077562 0.01269917 6579300
0.014782224 -0.011092947 0.010930769 6579300
0.014812264 -0.011099831 0.0078286128 6579300
0.014884034 -0.011116279 0.0027836449 6579300
0.014768083 -0.011089706 0.0071579907 6579300
0.014677764 -0.011069006 0.018269531 6579300
0.014753494 -0.011086362 0.0038497171 6579300
0.014761568 -0.011088213 0.0062505985 6579300
0.015168925 -0.011172441 0.010283777 6579300
0.015148382 -0.011168675 0.01474882 6579300
0.015287624 -0.011194202 0.016391737 6579300
0.015329171 -0.011201818 0.018841425 6579300
0.015109953 -0.01116163 0.019835763 6579300
0.015291646 -0.01119494 0.0063098818 6579300
0.015148831 -0.011168757 0.018461494 6579300
0.015293715 -0.011195319 0.0076663815 6579300
0.015243841 -0.011186175 0.0055491813 6579300
0.015295962 -0.01119573 0.010830339 6579300
0.01517308 -0.011173203 0.011703687 6579300
0.015317689 -0.011199714 0.017063092 6579300
0.015194799 -0.011177185 0.019459242 6579300
0.01499436 -0.011140438 0.0066213282 6579300
0.014996229 -0.011140781 0.0031542182 6579300
0.015188151 -0.011175966 0.0022012852 6579300
0.01520956 -0.01117989 0.00052577816 6579300
0.015222927 -0.011182341 0.004022311 6579300
0.015094295 -0.01115876 0.011206092 6579300
0.015134941 -0.011166211 0.0080672372 6579300
0.015050443 -0.01115072 0.015284061 6579300
0.015141193 -0.011167357 0.0090556303 6579300
0.01500229 -0.011141893 0.01744763 6579300
0.015018633 -0.011144889 0.0059020305 6579300
0.015063966 -0.011153199 0.0045019472 6579300
0.015048398 -0.011150345 0.0035724863 6579300
0.01505859 -0.011152213 0.012192081 6579300
0.015045571 -0.011149826 0.012974365 6579300
0.015162226 -0.011171213 0.0070874873 6579300
0.014987703 -0.011139218 0.00092667947 6579300
0.015738478 -0.011257526 0.016040698 6579300
0.01545353 -0.011219389 0.018133391 6579300
0.015528084 -0.011229367 0.014877907 6579300
0.015725778 -0.011255826 0.008625662 6579300
0.01573796 -0.011257457 0.017585628 6579300
0.015452755 -0.011219285 0.015742304 6579300
0.015497378 -0.011225257 0.013942925 6579300
0.015621484 -0.011241867 0.019331427 6579300
0.015739685 -0.011257687 0.0034829276 6579300
0.015765352 -0.011261122 0.002762751 6579300
0.015456917 -0.011219842 0.01531861 6579300
0.015743125 -0.011258148 0.0051023946 6579300
0.015541424 -0.011231152 0.012601241 6579300
0.015752316 -0.011259377 0.019694764 6579300
0.015631242 -0.011243173 0.0098210201 6579300
0.015696291 -0.011251879 0.01022354 6579300
0.015727757 -0.01125609 0.01872658 6579300
0.015626108 -0.011242487 0.013561208 6579300
0.01576348 -0.011260872 0.014304945 6579300
0.015459196 -0.011220147 0.0030785841 6579300
0.015351068 -0.011205676 0.017766371 6579300
0.015416802 -0.011214473 0.0014279814 6579300
0.015361011 -0.011207007 0.005148699 6579300
0.015652755 -0.011246053 0.0023415817 6579300
0.015599578 -0.011238935 0.0057391939 6579300
0.015563962 -0.011234169 0.0073634805 6579300
0.015521987 -0.011228551 0.0044630528 6579300
0.015475245 -0.011222295 0.011292603 6579300
0.015674951 -0.011249023 0.000722848 6579300
0.015626071 -0.011242481 0.0040010363 6579300
0.015460478 -0.011220319 0.012124859 6579300
0.015348152 -0.011205286 0.014381891 6579300
0.016190534 -0.011298148 0.0062136753 6579300
0.015860667 -0.01126965 0.018335445 6579300
0.01614726 -0.01129441 0.0066317818 6579300
0.016026808 -0.011284004 0.011371229 6579300
0.016138695 -0.01129367 0.014286724 6579300
0.016025975 -0.011283931 0.013486929 6579300
0.015975188 -0.011279544 0.011793374 6579300
0.016188707 -0.011297991 0.018018797 6579300
0.016079897 -0.01128859 0.010294821 6579300
0.016179528 -0.011297197 0.012462201 6579300
0.016194565 -0.011298496 0.019679867 6579300
0.015910214 -0.011273931 0.013902541 6579300
0.016166938 -0.01129611 0.017370118 6579300
0.01603432 -0.011284652 0.0096275676 6579300
0.016153716 -0.011294967 0.015797861 6579300
0.015987422 -0.011280601 0.016345605 6579300
0.016365537 -0.011305361 0.016148917 6579300
0.016505243 -0.011310843 0.017747454 6579300
0.016271271 -0.011301662 0.0076837633 6579300
0.016312247 -0.011303269 0.0070888456 6579300
0.016224338 -0.01129982 0.0087610688 6579300
0.016620837 -0.011315379 0.019037759 6579300
0.016257193 -0.01130111 0.0022814847 6579300
0.016243773 -0.011300582 0.010943093 6579300
0.016518246 -0.011311353 0.018218243 6579300
0.0162792 -0.011301973 0.018533979 6579300
0.016359519 -0.011305124 0.013264505 6579300
0.016602952 -0.011314677 0.019457649 6579300
0.016324569 -0.011303753 0.0083571756 6579300
0.016250834 -0.01130086 0.019236976 6579300
0.01622401 -0.011299807 0.016693592 6579300
0.016469896 -0.011309456 0.012176052 6579300
0.016330021 -0.011303967 0.015330085 6579300
0.0164384 -0.01130822 0.010011949 6579300
0.016340785 -0.01130439 0.014629158 6579300
0.015909415 -0.011273862 0.0031520533 6579300
0.015884437 -0.011271704 0.0071682539 6579300
0.016121048 -0.011292146 0.00054105662 6579300
0.015825933 -0.01126665 0.012883253 6579300
0.016101755 -0.011290479 0.0012693699 6579300
0.015925741 -0.011275272 0.0017342179 6579300
0.015797129 -0.011264161 0.010685343 6579300
0.015967058 -0.011278842 0.0056973761 6579300
0.015811576 -0.011265409 0.016829228 6579300
0.015892547 -0.011272404 0.0092430953 6579300
0.015813796 -0.011265601 0.0080733756 6579300
0.016095571 -0.011289944 0.0043062889 6579300
0.015821993 -0.011266309 0.015141271 6579300
0.015818093 -0.011265972 0.0063177124 6579300
0.015916586 -0.011274481 0.0046637338 6579300
0.016294701 -0.011302581 0.0027470607 6579300
0.01634655 -0.011304616 0.0054721092 6579300
0.01659107 -0.011314211 0.01151419 6579300
0.016507957 -0.011310949 0.0091196401 6579300
0.016661374 -0.01131697 0.0025429777 6579300
0.016538115 -0.011312133 3.7409443e-06 6579300
0.016701583 -0.011318548 0.0035516238 6579300
0.016335202 -0.01130417 0.0016349119 6579300
0.016614283 -0.011315122 0.0057680598 6579300
0.016636547 -0.011315996 0.013530515 6579300
0.016609184 -0.011314922 0.010739799 6579300
0.016550014 -0.0113126 0.012657255 6579300
0.016498649 -0.011310584 0.0050602453 6579300
0.016324719 -0.011303759 0.0046675238 6579300
0.016645266 -0.011316338 0.011127795 6579300
0.016492693 -0.01131035 0.0040957686 6579300
0.016643722 -0.011316277 0.0080425479 6579300
0.016708935 -0.011318836 0.0031466153 6579300
0.016521197 -0.011311469 0.0019787208 6579300
0.016547564 -0.011312503 0.0096270936 6579300
0.016662765 -0.011317024 0.01670224 6579300
0.016307626 -0.011303088 0.0036581194 6579300
0.016677482 -0.011317601 0.015554421 6579300
0.016545534 -0.011312424 0.0068024001 6579300
0.016465602 -0.011309288 0.0010529318 6579300
0.017134856 -0.011317171 0.019715108 6579300
0.017192252 -0.011316882 0.01418633 6579300
0.017175149 -0.011316968 0.01475896 6579300
0.017129209 -0.0113172 0.0095487284 6579300
0.016971998 -0.011317991 0.010476033 6579300
0.017038438 -0.011317656 0.013429296 6579300
0.016907359 -0.011318316 0.017131494 6579300
0.017169755 -0.011316996 0.019256741 6579300
0.016797895 -0.011318867 0.018529048 6579300
0.017067198 -0.011317512 0.0078054387 6579300
0.017056251 -0.011317567 0.0065640113 6579300
0.016963314 -0.011318034 0.017734256 6579300
0.01706283 -0.011317533 0.015847338 6579300
0.017192034 -0.011316883 0.01110238 6579300
0.017178068 -0.011316954 0.018494744 6579300
0.01718544 -0.011316917 0.0032522327 6579300
0.017178187 -0.011316953 0.016248448 6579300
0.017182885 -0.01131693 0.011529019 6579300
0.017255433 -0.011314965 0.004981372 6579300
0.017304972 -0.011312864 0.0056329127 6579300
0.017318003 -0.011312312 0.015243822 6579300
0.017407704 -0.011308507 0.010438631 6579300
0.017268397 -0.011314414 0.011949974 6579300
0.017292043 -0.011313412 0.018093297 6579300
0.017537361 -0.011303009 0.01599472 6579300
0.017271409 -0.011314287 0.013058163 6579300
0.01724045 -0.0113156 0.013789797 6579300
0.017303225 -0.011312938 0.016687199 6579300
0.017312678 -0.011312537 0.0091059571 6579300
0.017349709 -0.011310967 0.0099242693 6579300
0.017349677 -0.011310968 0.0073626307 6579300
0.017343059 -0.011311249 0.018927118 6579300
0.01743561 -0.011307324 0.01261699 6579300
0.017480478 -0.011305422 0.017239168 6579300
0.017519811 -0.011303754 0.017742382 6579300
0.017605277 -0.011300129 0.019357141 6579300
0.017067876 -0.011317508 0.0024859032 6579300
0.016898848 -0.011318359 0.0072931144 6579300
0.01681928 -0.011318759 0.014602127 6579300
0.016831595 -0.011318698 0.0099670161 6579300
0.016749302 -0.011319111 0.0087578744 6579300
0.016910763 -0.011318299 0.0012641877 6579300
0.016773326 -0.01131899 0.014174418 6579300
0.016862329 -0.011318543 0.013006831 6579300
0.016842686 -0.011318642 0.0053439778 6579300
0.016733631 -0.01131919 0.0045026722 6579300
0.016814116 -0.011318785 0.0062153563 6579300
0.01689237 -0.011318391 0.008406885 6579300
0.016807171 -0.011318821 0.00030220897 6579300
0.016833209 -0.011318689 0.012355719 6579300
0.017019533 -0.011317751 0.0040214583 6579300
0.017455444 -0.011306483 0.0087352917 6579300
0.01763857 -0.011298718 0.0083127487 6579300
0.017628411 -0.011299148 0.015478479 6579300
0.017620416 -0.011299487 0.0052521746 6579300
0.017601337 -0.011300297 0.011440178 6579300
0.017496074 -0.01130476 0.0060566529 6579300
0.017263208 -0.011314635 0.00080567622 6579300
0.017579729 -0.011301213 0.0065931221 6579300
0.017629601 -0.011299098 0.011866443 6579300
0.017530257 -0.01130331 0.00052352535 6579300
0.017509362 -0.011304197 0.0036767465 6579300
0.017368626 -0.011310165 0.0046154908 6579300
0.017434457 -0.011307373 0.001592227 6579300
0.01764603 -0.011298401 0.004275803 6579300
0.017657254 -0.011297925 0.0069587994 6579300
0.017427502 -0.011307668 0.0021014435 6579300
0.013994008 0.0024614437 0.000450085 6579300
0.013864475 0.0029448704 0.00067447056 6579300
0.013709635 0.0035227449 0.0088430243 6579300
0.013714284 0.0035053943 0.0094603635 6579300
0.014032691 0.0023170784 0.017929874 6579300
0.013769154 0.0033006154 0.0024454559 6579300
0.01378627 0.0032367369 0.0085944459 6579300
0.01376222 0.0033264942 0.0060539432 6579300
0.013651213 0.0037407801 0.0072586602 6579300
0.013944854 0.0026448898 0.01090529 6579300
0.013778575 0.0032654565 0.0072514508 6579300
0.013779482 0.0032620698 0.012289054 6579300
0.013895916 0.0028275319 0.0059095724 6579300
0.014072296 0.002169268 0.01154434 6579300
0.013911182 0.0027705545 0.0075605549 6579300
0.013830252 0.0030725924 0.0028745474 6579300
0.013437454 0.0045385421 0.00043647754 6579300
0.013805705 0.003164205 0.0017263609 6579300
0.013494349 0.0043262052 0.0012573476 6579300
0.013546072 0.0041331728 0.0051757218 6579300
0.013877454 0.0028964297 0.013423626 6579300
0.014075316 0.0021579948 0.0031773576 6579300
0.013752898 0.0033612817 0.0081604822 6579300
0.013985861 0.0024918481 0.009752918 6579300
0.014018403 0.0023703973 0.013216604 6579300
0.01390747 0.0027844119 0.0032099627 6579300
0.014070523 0.0021758864 0.010593817 6579300
0.014029204 0.0023300922 0.0083411802 6579300
0.013675009 0.0036519703 0.0076915142 6579300
0.013651399 0.0037400839 0.0062293732 6579300
0.013990791 0.002473451 0.017090855 6579300
0.013871079 0.0029202215 0.0024592844 6579300
0.013591122 0.0039650444 0.00097473332 6579300
0.013673335 0.0036582181 0.0083760675 6579300
0.014085333 0.0021206117 0.015215109 6579300
0.013660972 0.0037043558 0.0001479068 6579300
0.013914592 0.0027578329 0.0083213104 6579300
0.013939002 0.0026667325 0.0041351169 6579300
0.014011553 0.0023959663 0.012222091 6579300
0.013483974 0.0043649259 0.0044198944 6579300
0.013523248 0.0042183511 0.0018623159 6579300
0.013908243 0.0027815248 0.014845066 6579300
0.013723737 0.0034701168 0.0045103529 6579300
0.013561017 0.0040773968 0.0056481967 6579300
0.014055583 0.0022316435 0.0090059275 6579300
0.014077825 0.0021486331 0.0044639371 6579300
0.014081939 0.0021332789 0.0067377812 6579300
0.014063508 0.0022020657 0.013977773 6579300
0.013750617 0.0033697959 0.0099628735 6579300
0.013958489 0.0025940035 0.012717092 6579300
0.013342651 0.0048923558 0.0017124888 6579300
0.013779239 0.0032629773 0.0037152201 6579300
0.013330148 0.0049390183 0.001223868 6579300
0.013716985 0.0034953125 0.0067436579 6579300
0.014035036 0.0023083261 0.00080469518 6579300
0.013978882 0.0025178979 0.0071780626 6579300
0.014063798 0.0022009823 0.0052602412 6579300
0.013988502 0.0024819933 0.016601378 6579300
0.013787075 0.0032337327 0.00016611911 6579300
0.014000245 0.002438165 0.013655084 6579300
0.013798736 0.0031902115 0.0033546586 6579300
0.013816243 0.0031248736 0.0090450821 6579300
0.013790824 0.0032197391 0.010786041 6579300
0.014017509 0.0023737345 0.0056193527 6579300
0.013745815 0.003387718 0.00508259 6579300
0.013857297 0.0029716606 0.0047084144 6579300
0.013653509 0.0037322103 0.0033492069 6579300
0.013823817 0.0030966068 0.0097035691 6579300
0.014095101 0.0020841588 0.0078322608 6579300
0.013606081 0.0039092144 0.0024934395 6579300
0.01404782 0.0022606121 0.015607738 6579300
0.013956891 0.0025999676 0.005238086 6579300
0.013729148 0.0034499199 0.0054987939 6579300
0.013320954 0.0049733296 0.0001841763 6579300
0.013780998 0.0032564108 0.00087092072 6579300
0.014023037 0.0023531078 0.002232654 6579300
0.01386127 0.0029568332 0.012824935 6579300
0.013850464 0.0029971583 0.010371421 6579300
0.014010495 0.0023999165 0.0037587979 6579300
0.014092272 0.0020947168 0.0094349878 6579300
0.013848635 0.0030039861 0.0011740068 6579300
0.013884703 0.0028693804 0.011576822 6579300
0.013872124 0.0029163228 0.0079901014 6579300
0.013839971 0.0030363207 0.0065870564 6579300
0.013907569 0.0027840422 0.0094251549 6579300
0.013891928 0.002842413 0.012014561 6579300
0.013981407 0.002508475 0.001872799 6579300
0.01394511 0.0026439331 0.0066733537 6579300
0.013552639 0.004108666 0.0031309794 6579300
0.013467066 0.0044280267 0.003825597 6579300
0.014092973 0.0020920984 0.012637806 6579300
0.014093259 0.0020910315 0.013525851 6579300
0.013778626 0.0032652658 0.01155523 6579300
0.01384127 0.0030314752 0.0053286683 6579300
0.013947854 0.0026336953 0.0013685536 6579300
0.013721224 0.0034794915 0.010413849 6579300
0.014048506 0.0022580554 0.0074520828 6579300
0.01366389 0.0036934677 0.0028942823 6579300
0.013416926 0.0046151518 0.0029439335 6579300
0.013889151 0.0028527782 0.012403942 6579300
0.013989111 0.0024797171 0.011293935 6579300
0.013919222 0.0027405517 0.015353153 6579300
0.013852269 0.0029904218 0.011210241 6579300
0.013428369 0.0045724497 0.00085171679 6579300
0.013555749 0.0040970547 0.00055468804 6579300
0.013600645 0.0039295019 0.0079356683 6579300
0.013907873 0.0027829048 0.0089010103 6579300
0.013706313 0.0035351452 0.0015819822 6579300
0.013659968 0.0037081051 0.0021042484 6579300
0.013513145 0.0042560571 0.0023107722 6579300
0.013951009 0.0026219178 0.0045657633 6579300
0.013942888 0.0026522272 0.014017663 6579300
0.013696634 0.0035712633 0.0040719179 6579300
0.01360064 0.0039295205 0.0037583653 6579300
0.013892333 0.0028409036 0.003656436 6579300
0.013814555 0.003131178 0.0043576588 6579300
0.014072399 0.0021688864 0.014758263 6579300
0.013980941 0.0025102128 0.0025903599 6579300
0.013980987 0.0025100408 0.0060966979 6579300
0.014084478 0.0021238036 0.010102733 6579300
0.013293518 0.0050757211 0.0030060236 6579300
0.013251711 0.0052317479 0.014542079 6579300
0.013921344 0.002732632 0.017770465 6579300
0.013404398 0.0046619093 0.01600473 6579300
0.013620015 0.0038572114 0.011112963 6579300
0.013585467 0.0039861468 0.016147599 6579300
0.013315882 0.0049922597 0.0097490996 6579300
0.013401245 0.0046736789 0.019620175 6579300
0.013353192 0.0048530134 0.0036970819 6579300
0.01343959 0.0045305695 0.019227108 6579300
0.0136829 0.0036225198 0.017523905 6579300
0.013453296 0.0044794171 0.01284139 6579300
0.013575265 0.0040242202 0.011848369 6579300
0.013921034 0.0027337901 0.019936867 6579300
0.013569263 0.0040466222 0.018601129 6579300
0.013917577 0.0027466882 0.015813513 6579300
0.013300071 0.0050512669 0.014894113 6579300
0.013671311 0.0036657737 0.011822861 6579300
0.013250239 0.0052372394 0.00069716125 6579300
0.013339184 0.0049052909 0.014332034 6579300
0.013388122 0.0047226506 0.0044596191 6579300
0.013467237 0.0044273897 0.0095030293 6579300
0.01343707 0.004539974 0.013836075 6579300
0.013731455 0.0034413086 0.019224571 6579300
0.013633566 0.0038066369 0.017026009 6579300
0.013736283 0.0034232892 0.017846674 6579300
0.01386499 0.0029429486 0.017341947 6579300
0.013483335 0.0043673092 0.0099518253 6579300
0.01330262 0.005041752 0.019264752 6579300
0.013439505 0.0045308848 0.0086047444 6579300
0.013935922 0.0026782246 0.018185675 6579300
0.013305997 0.0050291461 0.0075890189 6579300
0.013262277 0.0051923166 0.018310744 6579300
0.013793371 0.0032102375 0.017048871 6579300
0.013412322 0.0046323352 0.011481361 6579300
0.013313244 0.0050021033 0.0071086758 6579300
0.013554939 0.0041000792 0.013437759 6579300
0.013505763 0.0042836084 0.017219938 6579300
0.013246011 0.0052530202 0.011911255 6579300
0.013575326 0.0040239948 0.0085954741 6579300
0.01366083 0.0037048867 0.016618157 6579300
0.013548159 0.0041253832 0.007458807 6579300
0.01380564 0.0031644483 0.019527033 6579300
0.013395934 0.004693497 0.0065422673 6579300
0.013818431 0.0031167092 0.016104693 6579300
0.013253059 0.0052267159 0.0089984648 6579300
0.01370196 0.0035513877 0.018343609 6579300
0.013321203 0.0049723964 0.0023631672 6579300
0.013375659 0.0047691623 0.015577261 6579300
0.013668947 0.0036745952 0.012247133 6579300
0.013405401 0.0046581645 0.010418109 6579300
0.013500595 0.0043028989 0.016337512 6579300
0.013516954 0.0042418428 0.01774166 6579300
0.01351542 0.0042475667 0.0064449767 6579300
0.013488662 0.0043474291 0.012346298 6579300
0.013417919 0.0046114461 0.017941261 6579300
0.013419485 0.0046056053 0.013454757 6579300
0.013727224 0.003457098 0.01533438 6579300
0.01340785 0.0046490259 0.0077607934 6579300
0.013353065 0.0048534898 0.011981239 6579300
0.013664469 0.0036913047 0.01344169 6579300
0.013460024 0.0044543068 0.0056933472 6579300
0.013425048 0.00458484 0.0051237005 6579300
0.013536775 0.0041678669 0.015219714 6579300
0.013435109 0.004547297 0.014734617 6579300
0.013261698 0.0051944763 0.010843342 6579300
0.013549278 0.0041212048 0.019449543 6579300
0.01334639 0.004878398 0.0055073551 6579300
0.013269912 0.0051638186 0.0034202428 6579300
0.013874318 0.0029081339 0.016603479 6579300
0.013357352 0.0048374888 0.0092433747 6579300
0.013496498 0.0043181879 0.01558446 6579300
0.013337567 0.0049113254 0.016620494 6579300
0.013521776 0.0042238478 0.01132321 6579300
0.013544697 0.0041383025 0.010311271 6579300
0.013698823 0.0035630951 0.019841772 6579300
0.013609748 0.0038955288 0.018061683 6579300
0.013820669 0.0031083589 0.015678898 6579300
0.013579032 0.00401016 0.0096973404 6579300
0.013911632 0.0027688758 0.019025583 6579300
0.013766429 0.0033107826 0.018715063 6579300
0.013738791 0.0034139333 0.012933495 6579300
0.01352459 0.0042133429 0.0089762649 6579300
0.013372078 0.0047825314 0.0032824106 6579300
0.013494402 0.0043260069 0.018241618 6579300
0.013351751 0.004858389 0.012460306 6579300
0.014048322 0.0022587394 0.019932184 6579300
0.013280256 0.0051252176 0.011349219 6579300
0.013600891 0.0039285831 0.012973616 6579300
0.013806376 0.0031617 0.019945972 6579300
0.013945134 0.0026438446 0.018622415 6579300
0.013758663 0.0033397675 0.016425213 6579300
0.013321809 0.0049701384 0.017328918 6579300
0.013748406 0.0033780446 0.014057606 6579300
0.013338671 0.0049072062 0.018575758 6579300
0.013359161 0.0048307376 0.0060552009 6579300
0.013497808 0.0043132966 0.018925402 6579300
0.013304597 0.0050343755 0.010494383 6579300
0.013820852 0.003107674 0.014372734 6579300
0.013245475 0.0052550244 0.014030911 6579300
0.013540921 0.0041523958 0.013922397 6579300
0.013471101 0.0044129686 0.010933346 6579300
0.0135779 0.0040143887 0.014528134 6579300
