# .PCD v0.7 - Point Cloud Data file format
VERSION 0.7
FIELDS x y z rgb
SIZE 4 4 4 4
TYPE F F F U
COUNT 1 1 1 1
WIDTH 1080
HEIGHT 1
VIEWPOINT 0 0 0 1 0 0 0
POINTS 1080
DATA ascii
-0.031376395 0.020000219 0.033736583 6579300
-0.030496964 0.020000214 0.034024667 6579300
-0.032803688 0.020000231 0.034173083 6579300
-0.036966652 0.020000249 0.032350458 6579300
-0.03549676 0.020000238 0.031005617 6579300
-0.036814675 0.020000245 0.030780159 6579300
-0.036744893 0.020000244 0.03000286 6579300
-0.031755384 0.020000219 0.033035632 6579300
-0.037429582 0.020000249 0.031351496 6579300
-0.034630593 0.020000234 0.032025792 6579300
-0.037646856 0.020000249 0.029707089 6579300
-0.030816732 0.020000214 0.033264883 6579300
-0.038479891 0.020000255 0.030279672 6579300
-0.038090132 0.020000253 0.031448741 6579300
-0.035590377 0.02000024 0.031855356 6579300
-0.029583285 0.020000208 0.034057457 6579300
-0.033667684 0.020000231 0.032395352 6579300
-0.034260489 0.020000234 0.032785796 6579300
-0.036021758 0.02000024 0.030481344 6579300
-0.032930352 0.020000225 0.0323871 6579300
-0.03641656 0.020000244 0.031715024 6579300
-0.037569191 0.020000249 0.030381029 6579300
-0.040957484 0.020000262 0.023496589 6579300
-0.041197859 0.020000266 0.024250185 6579300
0.021205552 0.019999975 0.086396046 6579300
0.02275769 0.01999997 0.086000182 6579300
0.02019815 0.019999981 0.086557254 6579300
-0.040077548 0.020000262 0.023062533 6579300
-0.040280789 0.020000264 0.023786413 6579300
-0.040684987 0.020000266 0.024875352 6579300
-0.041005004 0.020000268 0.025637962 6579300
-0.041600786 0.02000027 0.026381923 6579300
0.0211978 0.019999979 0.085534275 6579300
0.022517534 0.019999972 0.085344717 6579300
0.018917261 0.01999999 0.086403124 6579300
0.01969713 0.019999987 0.085943691 6579300
-0.03908018 0.020000251 0.022725889 6579300
-0.0399989 0.02000026 0.024934435 6579300
-0.040907618 0.020000268 0.026595591 6579300
-0.039531592 0.020000257 0.024202624 6579300
-0.040125135 0.020000262 0.025700318 6579300
0.021911057 0.019999973 0.084705293 6579300
0.021065373 0.019999977 0.084698148 6579300
0.020443786 0.019999981 0.085214369 6579300
-0.040058259 0.020000266 0.026925173 6579300
0.010847132 0.020000018 0.073690131 6579300
0.011439724 0.020000018 0.073338434 6579300
0.012173568 0.020000014 0.07556919 6579300
0.013571532 0.020000011 0.077621281 6579300
0.011637246 0.020000016 0.074980058 6579300
0.011509841 0.020000018 0.074306659 6579300
0.014117992 0.020000009 0.078085676 6579300
-0.031171873 0.020000217 0.031995114 6579300
-0.030397912 0.020000214 0.032256037 6579300
-0.032800674 0.020000225 0.031608876 6579300
-0.031918276 0.020000219 0.032198817 6579300
-0.034715623 0.020000234 0.030623464 6579300
-0.028098511 0.020000203 0.033806924 6579300
-0.033354666 0.020000227 0.030929025 6579300
-0.028843619 0.020000204 0.033549115 6579300
-0.030044131 0.02000021 0.033358444 6579300
0.021811118 0.019999973 0.083906122 6579300
0.019149048 0.019999985 0.084788822 6579300
0.018844852 0.019999988 0.085541122 6579300
-0.03849953 0.020000253 0.023751324 6579300
-0.039324969 0.02000026 0.025836837 6579300
-0.038440946 0.020000255 0.025304813 6579300
0.017985882 0.019999988 0.084855065 6579300
0.022018258 0.019999972 0.083099768 6579300
0.020575212 0.019999979 0.083998762 6579300
-0.038890895 0.020000255 0.026577529 6579300
-0.037600186 0.020000244 0.024190163 6579300
-0.039020769 0.020000257 0.027492709 6579300
-0.037655469 0.020000247 0.025048044 6579300
0.019150633 0.019999987 0.083949447 6579300
0.022257732 0.01999997 0.082441799 6579300
0.020863764 0.019999975 0.083241142 6579300
0.019877391 0.019999981 0.083758444 6579300
-0.038176876 0.020000253 0.026746288 6579300
0.017787069 0.019999996 0.084155783 6579300
0.020178186 0.019999981 0.082959265 6579300
0.021331197 0.019999975 0.082666025 6579300
-0.036684111 0.020000245 0.025038972 6579300
-0.03765041 0.020000249 0.025979035 6579300
-0.036141887 0.020000244 0.024608459 6579300
-0.038404938 0.020000257 0.028066335 6579300
-0.037627149 0.020000249 0.027967617 6579300
-0.037356377 0.020000249 0.027158346 6579300
-0.036553007 0.020000244 0.025924878 6579300
0.02159504 0.019999973 0.08189299 6579300
0.020891782 0.019999975 0.081984147 6579300
0.01828213 0.019999992 0.083212659 6579300
0.017511297 0.019999996 0.083320059 6579300
0.017574945 0.019999994 0.082602024 6579300
0.019178621 0.019999987 0.082611628 6579300
0.013181683 0.020000011 0.073107325 6579300
0.012157224 0.020000018 0.073269695 6579300
0.011741376 0.02000002 0.072678275 6579300
0.012625217 0.020000016 0.074503154 6579300
0.013654273 0.020000011 0.076302417 6579300
0.01419341 0.020000007 0.077018954 6579300
0.015236098 0.020000003 0.079866298 6579300
0.013352213 0.020000013 0.075608164 6579300
0.013519905 0.020000009 0.074610159 6579300
0.013379954 0.020000009 0.073816888 6579300
-0.027151696 0.020000201 0.032147065 6579300
-0.028245192 0.020000204 0.03259721 6579300
-0.03054806 0.020000216 0.03148612 6579300
-0.035129838 0.020000236 0.029790897 6579300
-0.028586449 0.020000206 0.031894688 6579300
-0.034222096 0.020000232 0.030124655 6579300
-0.029111611 0.020000208 0.03242857 6579300
-0.031929322 0.020000221 0.031419311 6579300
-0.030482963 0.020000216 0.02925832 6579300
-0.028850012 0.020000208 0.0311673 6579300
-0.036474962 0.020000242 0.029132675 6579300
-0.035767384 0.02000024 0.028452376 6579300
-0.033718258 0.020000231 0.029648358 6579300
-0.033277761 0.020000229 0.026860399 6579300
-0.036430281 0.020000244 0.027698794 6579300
-0.03099424 0.020000217 0.030599562 6579300
-0.03229899 0.020000225 0.027291309 6579300
-0.032174591 0.020000223 0.029462459 6579300
-0.033659536 0.020000231 0.027817167 6579300
-0.034692492 0.020000236 0.025052425 6579300
-0.035170201 0.020000238 0.025802985 6579300
-0.031893998 0.020000223 0.030541172 6579300
-0.029633593 0.020000212 0.030835483 6579300
-0.034608819 0.020000234 0.028574165 6579300
-0.029424317 0.020000212 0.030161258 6579300
-0.034482002 0.020000234 0.029404905 6579300
-0.035812221 0.02000024 0.027303014 6579300
-0.037162434 0.020000245 0.028697295 6579300
-0.028033685 0.020000204 0.031363409 6579300
-0.03390583 0.020000232 0.026551299 6579300
-0.035880391 0.020000242 0.026085796 6579300
-0.035762701 0.02000024 0.029456645 6579300
-0.032341391 0.020000225 0.028310882 6579300
-0.035484366 0.02000024 0.024348166 6579300
-0.035463493 0.02000024 0.025120858 6579300
-0.030492144 0.020000216 0.030073313 6579300
-0.034569852 0.020000234 0.027069498 6579300
-0.032971095 0.020000229 0.027566925 6579300
-0.03443028 0.020000234 0.026074935 6579300
-0.032872565 0.020000227 0.029798556 6579300
-0.033570115 0.020000231 0.028723886 6579300
-0.034697708 0.020000236 0.027775249 6579300
0.021484789 0.019999972 0.080982894 6579300
0.019506389 0.019999981 0.081580631 6579300
0.020031879 0.019999977 0.081063867 6579300
0.020805929 0.019999973 0.080673158 6579300
0.018827712 0.019999985 0.081844553 6579300
0.015034038 0.020000003 0.07855133 6579300
0.015802275 0.02 0.080284931 6579300
0.013852035 0.020000005 0.07289163 6579300
0.014221793 0.020000003 0.074185818 6579300
0.014281519 0.020000005 0.0750672 6579300
0.014190209 0.020000007 0.075754218 6579300
0.015043614 0.020000001 0.077299058 6579300
0.013350879 0.020000007 0.071992017 6579300
0.014060173 0.020000001 0.072109625 6579300
0.020047361 0.019999975 0.078844108 6579300
0.018061984 0.01999999 0.081947662 6579300
0.01664187 0.01999999 0.07546854 6579300
0.015288935 0.019999998 0.075949527 6579300
0.015776124 0.019999996 0.07653404 6579300
0.017803431 0.019999987 0.07842087 6579300
0.02052319 0.019999973 0.080046125 6579300
0.015603516 0.019999996 0.074949607 6579300
0.015595412 0.019999994 0.073487267 6579300
0.018564997 0.019999987 0.081017472 6579300
0.016461011 0.019999992 0.077030122 6579300
0.017450266 0.01999999 0.079081893 6579300
0.017800787 0.019999985 0.075966947 6579300
0.017179901 0.019999994 0.081699796 6579300
0.016291615 0.01999999 0.074532986 6579300
0.014604868 0.02 0.073292784 6579300
0.01812828 0.019999987 0.079578273 6579300
0.016498746 0.019999994 0.078858599 6579300
0.015882581 0.02 0.079483144 6579300
0.016453642 0.019999992 0.076195091 6579300
0.0168068 0.019999996 0.082330674 6579300
0.017175794 0.019999988 0.076356247 6579300
0.016977621 0.019999994 0.080997244 6579300
0.017031029 0.01999999 0.077486463 6579300
0.019705502 0.019999979 0.0799096 6579300
0.017081983 0.019999992 0.079897657 6579300
0.018938765 0.019999983 0.080201074 6579300
0.017559988 0.01999999 0.080483973 6579300
0.017749188 0.019999987 0.076926216 6579300
0.019345095 0.019999979 0.079190306 6579300
0.018863317 0.019999981 0.078564413 6579300
0.016383113 0.019999998 0.081582218 6579300
0.018242072 0.019999983 0.077571139 6579300
0.01495041 0.02 0.075287051 6579300
0.016089162 0.019999996 0.0777338 6579300
0.016269596 0.019999998 0.080868818 6579300
0.017756822 0.01999999 0.081301898 6579300
-0.031567901 0.020000221 0.027578229 6579300
-0.028446071 0.020000206 0.030575627 6579300
-0.029856432 0.020000212 0.02888786 6579300
-0.027074477 0.020000193 0.030481342 6579300
-0.030712124 0.020000217 0.028416395 6579300
-0.028545719 0.020000201 0.029222075 6579300
-0.033471346 0.020000229 0.025640048 6579300
-0.032393958 0.020000223 0.026404489 6579300
0.017059136 0.019999985 0.073883452 6579300
0.01449031 0.019999998 0.071405359 6579300
0.016092042 0.019999988 0.072554991 6579300
0.018483847 0.019999981 0.07658048 6579300
0.016388303 0.01999999 0.073768377 6579300
0.014984671 0.019999996 0.072419792 6579300
0.017008537 0.019999987 0.074757114 6579300
0.019391842 0.019999977 0.077416867 6579300
-0.029811455 0.02000021 0.027388571 6579300
-0.027880313 0.020000201 0.028434126 6579300
-0.026035307 0.02000019 0.029882906 6579300
-0.02935851 0.020000206 0.028157689 6579300
-0.026628466 0.020000193 0.02957016 6579300
-0.027390128 0.020000195 0.029757343 6579300
0.022854956 0.019999955 0.077567227 6579300
0.021496341 0.019999962 0.076124094 6579300
0.022428941 0.01999996 0.079539135 6579300
0.018280411 0.019999983 0.073793843 6579300
0.020436205 0.019999973 0.077733934 6579300
0.023194425 0.019999953 0.078245327 6579300
0.019954525 0.019999975 0.076658264 6579300
0.02169597 0.019999966 0.078959316 6579300
0.016828781 0.019999988 0.070455424 6579300
0.021321412 0.019999966 0.077312097 6579300
0.02035499 0.01999997 0.07464204 6579300
0.019803237 0.019999972 0.073906384 6579300
0.022461304 0.01999996 0.078687631 6579300
0.021919478 0.019999962 0.078162841 6579300
0.022133222 0.01999996 0.077215314 6579300
0.017826244 0.019999985 0.072864614 6579300
0.018832205 0.019999979 0.074616723 6579300
0.020944813 0.019999972 0.079212852 6579300
0.020075133 0.019999973 0.075882755 6579300
0.019084459 0.019999979 0.075428374 6579300
0.020593394 0.01999997 0.076883562 6579300
0.018562913 0.019999979 0.073163725 6579300
0.021191632 0.019999968 0.078071378 6579300
0.016092883 0.019999988 0.071650654 6579300
0.018152002 0.019999981 0.075107321 6579300
0.016910989 0.019999988 0.071236603 6579300
0.019094644 0.019999979 0.076244973 6579300
0.01722789 0.019999987 0.071950719 6579300
0.015728492 0.01999999 0.071024448 6579300
0.016894551 0.019999987 0.072650269 6579300
0.017678697 0.019999983 0.07435365 6579300
-0.033285424 0.020000227 0.02476858 6579300
-0.030444825 0.02000021 0.025602045 6579300
-0.02787368 0.020000195 0.026644072 6579300
-0.029001532 0.020000203 0.026707459 6579300
-0.034531552 0.020000229 0.022654343 6579300
-0.031616945 0.020000216 0.024890665 6579300
-0.034718655 0.020000234 0.024287321 6579300
-0.031358875 0.02000021 0.024140643 6579300
-0.029448556 0.020000201 0.025246248 6579300
-0.03072756 0.020000208 0.024407754 6579300
-0.031958267 0.020000214 0.02362697 6579300
-0.032160092 0.020000217 0.024307223 6579300
-0.030081686 0.020000204 0.024805544 6579300
-0.034868378 0.020000234 0.023623182 6579300
-0.032902583 0.020000216 0.022353869 6579300
-0.032961834 0.020000221 0.023957295 6579300
-0.033731148 0.020000221 0.02242537 6579300
-0.034027122 0.020000227 0.023341922 6579300
-0.02997219 0.020000208 0.026169233 6579300
-0.033977587 0.020000231 0.024663623 6579300
-0.030243149 0.020000212 0.026843684 6579300
-0.027002418 0.020000195 0.028821064 6579300
-0.02587904 0.020000188 0.028889051 6579300
-0.030973228 0.020000216 0.026515914 6579300
-0.032252144 0.020000221 0.025476338 6579300
-0.027322195 0.020000195 0.02788914 6579300
-0.026522474 0.02000019 0.028203495 6579300
-0.028498655 0.020000201 0.02714655 6579300
0.01769992 0.019999979 0.069869585 6579300
0.020620143 0.019999966 0.073949784 6579300
0.017937137 0.019999983 0.071690224 6579300
0.01998229 0.019999968 0.073167905 6579300
0.020936416 0.019999966 0.075178571 6579300
0.019097971 0.019999973 0.072126947 6579300
0.018499607 0.019999975 0.071112216 6579300
-0.031921484 0.020000212 0.022852002 6579300
-0.027153559 0.02000019 0.026587177 6579300
-0.02722303 0.020000191 0.025776172 6579300
-0.026538614 0.020000188 0.026871584 6579300
-0.025706196 0.020000184 0.02769004 6579300
-0.029230092 0.020000201 0.024603795 6579300
-0.029778412 0.020000203 0.024056984 6579300
-0.030927053 0.020000206 0.023487337 6579300
-0.026483912 0.02000019 0.026144166 6579300
-0.024914499 0.020000182 0.026999088 6579300
-0.028467229 0.020000195 0.025541717 6579300
-0.037765019 0.02000024 0.016490601 6579300
-0.037148476 0.020000236 0.015635626 6579300
0.02956726 0.019999929 0.082677864 6579300
-0.036626041 0.020000234 0.01499977 6579300
0.020074707 0.019999964 0.071148202 6579300
0.018722394 0.019999973 0.070406377 6579300
0.019211499 0.019999972 0.071265489 6579300
0.021239288 0.01999996 0.07426089 6579300
0.018596968 0.019999972 0.069000423 6579300
0.020433115 0.019999964 0.07245259 6579300
0.019729244 0.01999997 0.072404481 6579300
0.022594942 0.019999955 0.076592818 6579300
0.01943228 0.019999968 0.070348822 6579300
-0.028829014 0.020000197 0.02393993 6579300
-0.024007676 0.020000177 0.02691116 6579300
-0.027344188 0.02000019 0.024798574 6579300
-0.02821492 0.020000195 0.024396693 6579300
-0.02555494 0.020000184 0.026279403 6579300
-0.026577145 0.020000188 0.025312791 6579300
-0.036987592 0.020000238 0.016384615 6579300
-0.037418831 0.02000024 0.017158838 6579300
-0.035923041 0.020000232 0.015039436 6579300
0.030021127 0.019999925 0.081594005 6579300
0.029186904 0.019999927 0.081920408 6579300
-0.036250215 0.020000234 0.016302226 6579300
-0.036603432 0.020000236 0.017383862 6579300
-0.035363991 0.020000227 0.015945647 6579300
-0.036995586 0.02000024 0.017938621 6579300
-0.03598059 0.020000232 0.01691767 6579300
-0.034271847 0.020000221 0.015091082 6579300
0.02901119 0.019999932 0.081175208 6579300
0.030291414 0.019999923 0.080605693 6579300
0.03074945 0.019999919 0.079833426 6579300
-0.035829309 0.020000229 0.018589756 6579300
-0.034875598 0.020000227 0.016951434 6579300
-0.035622723 0.020000234 0.017675104 6579300
0.030586192 0.019999919 0.079175055 6579300
0.02976579 0.019999925 0.079816557 6579300
0.029038668 0.019999929 0.080004178 6579300
0.027962176 0.019999936 0.081154928 6579300
-0.034377877 0.020000223 0.016501671 6579300
-0.033914123 0.020000219 0.015868718 6579300
-0.035151526 0.020000225 0.018570423 6579300
-0.034672461 0.020000223 0.01791819 6579300
-0.032986525 0.020000212 0.015556778 6579300
0.029630711 0.019999923 0.07900545 6579300
0.027894678 0.019999934 0.080427028 6579300
-0.033837751 0.020000219 0.017564183 6579300
-0.033373818 0.020000216 0.016535271 6579300
-0.035462271 0.020000231 0.02000468 6579300
-0.034869511 0.020000227 0.019561678 6579300
-0.032585293 0.020000214 0.016458079 6579300
-0.034331344 0.020000225 0.018803427 6579300
0.027598253 0.019999932 0.079567105 6579300
0.027026625 0.019999936 0.080556668 6579300
0.028785089 0.019999927 0.079306155 6579300
-0.031814713 0.020000206 0.016833562 6579300
-0.032674391 0.020000212 0.017999338 6579300
-0.033157151 0.020000217 0.019028839 6579300
-0.03362336 0.020000219 0.020655582 6579300
-0.034350362 0.020000227 0.020973248 6579300
-0.033094727 0.020000214 0.019881146 6579300
-0.034380775 0.020000227 0.020219987 6579300
0.029707612 0.019999921 0.077777401 6579300
0.028887844 0.019999925 0.078209534 6579300
0.028309992 0.019999927 0.078826301 6579300
-0.02662098 0.020000184 0.024603713 6579300
-0.029010307 0.020000195 0.019954845 6579300
-0.026430145 0.020000182 0.022287378 6579300
-0.030542966 0.020000203 0.019415127 6579300
-0.027793497 0.02000019 0.020970678 6579300
-0.026934434 0.020000186 0.02345662 6579300
-0.025938578 0.02000018 0.023679977 6579300
-0.029757727 0.020000199 0.020550363 6579300
-0.029540194 0.020000197 0.018742763 6579300
-0.029843617 0.020000201 0.022295956 6579300
-0.029013494 0.020000195 0.020630326 6579300
-0.030887164 0.020000204 0.020729313 6579300
-0.027469855 0.020000188 0.022661151 6579300
-0.032513514 0.020000212 0.021119528 6579300
-0.030894607 0.020000204 0.019997664 6579300
-0.029502483 0.020000197 0.021197125 6579300
-0.029839663 0.020000199 0.019747825 6579300
-0.031169098 0.020000206 0.022518396 6579300
-0.030896988 0.020000204 0.018035268 6579300
-0.030498024 0.020000203 0.02266318 6579300
-0.025936177 0.02000018 0.024409143 6579300
-0.025099006 0.020000177 0.024570625 6579300
-0.031153994 0.020000206 0.021432033 6579300
-0.031757288 0.020000208 0.019832117 6579300
-0.03132467 0.020000206 0.018881714 6579300
-0.031919133 0.02000021 0.021647884 6579300
-0.029401612 0.020000197 0.022892879 6579300
-0.025190949 0.020000178 0.025240669 6579300
-0.024511 0.020000175 0.025636842 6579300
-0.027575068 0.02000019 0.02393103 6579300
-0.027634772 0.02000019 0.021792131 6579300
-0.028456876 0.020000193 0.021704616 6579300
-0.03170985 0.020000208 0.020888105 6579300
-0.030216236 0.020000201 0.021166056 6579300
-0.028713653 0.020000195 0.023049949 6579300
-0.025650952 0.020000177 0.022186762 6579300
-0.026670109 0.020000182 0.021535765 6579300
-0.024293687 0.020000171 0.024211874 6579300
-0.028543523 0.020000191 0.019296123 6579300
-0.023834685 0.020000171 0.025197204 6579300
-0.027802138 0.020000188 0.01998806 6579300
-0.025017316 0.020000175 0.023324108 6579300
-0.031987455 0.020000208 0.018413391 6579300
-0.032419898 0.02000021 0.019105924 6579300
-0.031814836 0.020000206 0.017765041 6579300
0.027345274 0.019999934 0.078629814 6579300
0.026530847 0.019999942 0.079517014 6579300
0.028021485 0.019999929 0.077842914 6579300
0.025789721 0.019999946 0.079800032 6579300
0.028772542 0.019999923 0.076788634 6579300
0.026664419 0.019999936 0.078230709 6579300
0.025804998 0.019999942 0.078934714 6579300
0.028997136 0.019999919 0.075987391 6579300
0.027506322 0.019999929 0.077188976 6579300
0.025970934 0.01999994 0.077953696 6579300
0.025003847 0.019999947 0.078921705 6579300
0.02801404 0.019999927 0.076325037 6579300
0.021949656 0.019999959 0.070212945 6579300
0.021048382 0.019999964 0.068744741 6579300
0.020364238 0.019999964 0.06915395 6579300
0.024293547 0.019999947 0.071999177 6579300
0.023135282 0.019999953 0.071243517 6579300
0.021322509 0.01999996 0.069470644 6579300
0.019855242 0.019999968 0.068114057 6579300
0.022801129 0.019999955 0.070544258 6579300
0.02100496 0.01999996 0.070837222 6579300
0.026650833 0.019999938 0.075595029 6579300
0.023251535 0.019999951 0.074465767 6579300
0.022773843 0.019999953 0.075923972 6579300
0.023824265 0.019999949 0.073158987 6579300
0.021961562 0.019999957 0.073772021 6579300
0.023509445 0.019999951 0.076767914 6579300
0.022016656 0.019999957 0.07279893 6579300
0.024455002 0.019999947 0.077107504 6579300
0.025810482 0.019999942 0.076237559 6579300
0.023021292 0.019999953 0.0751542 6579300
0.027642462 0.019999932 0.075015664 6579300
0.022207128 0.019999957 0.075033113 6579300
0.021355482 0.019999959 0.073168546 6579300
0.024831116 0.019999946 0.073954061 6579300
0.025574172 0.019999942 0.075538322 6579300
0.022830894 0.019999953 0.073583789 6579300
0.024499543 0.019999946 0.075939983 6579300
0.023044886 0.019999953 0.072792187 6579300
0.021006763 0.01999996 0.070065297 6579300
0.022952197 0.019999953 0.071963198 6579300
0.023969756 0.019999949 0.07781782 6579300
0.02374699 0.019999949 0.072395317 6579300
0.020862205 0.01999996 0.071868069 6579300
0.025286987 0.019999942 0.073212758 6579300
0.02028577 0.019999964 0.070511617 6579300
0.026335085 0.019999938 0.074322127 6579300
0.025121171 0.019999944 0.074756756 6579300
0.024346154 0.019999947 0.07455986 6579300
0.019518392 0.019999966 0.069081031 6579300
0.021651564 0.019999959 0.071360514 6579300
0.024154285 0.019999947 0.075252064 6579300
0.021875568 0.019999957 0.072086625 6579300
0.026960203 0.019999936 0.074822456 6579300
0.025610765 0.019999942 0.0741558 6579300
0.023511557 0.019999951 0.07564126 6579300
0.02575426 0.019999942 0.077190727 6579300
0.027086234 0.019999936 0.076326311 6579300
0.026605135 0.019999938 0.07695929 6579300
0.0249559 0.019999946 0.0778713 6579300
0.026258338 0.01999994 0.073361889 6579300
0.023557981 0.019999951 0.070227504 6579300
0.025330484 0.019999942 0.072070099 6579300
0.020970508 0.019999962 0.06766095 6579300
0.026948282 0.019999936 0.073731087 6579300
0.02180961 0.019999959 0.068880945 6579300
0.024794945 0.019999946 0.071446061 6579300
0.023937607 0.019999949 0.070856608 6579300
0.021803537 0.019999957 0.067922443 6579300
0.022719245 0.019999955 0.06983085 6579300
-0.022111483 0.020000162 0.02404152 6579300
-0.022837356 0.020000165 0.023568481 6579300
-0.025355445 0.020000177 0.021471469 6579300
-0.024028508 0.020000169 0.022679752 6579300
-0.024406314 0.020000173 0.021890009 6579300
-0.024837652 0.020000173 0.022568425 6579300
-0.023373844 0.020000165 0.02419607 6579300
-0.023653857 0.020000167 0.023382407 6579300
-0.026856028 0.020000182 0.020446517 6579300
0.021649536 0.019999955 0.067241222 6579300
0.023124162 0.019999947 0.068199933 6579300
0.021591922 0.019999951 0.065847166 6579300
0.026117831 0.019999938 0.072323754 6579300
0.022003371 0.019999949 0.066455022 6579300
0.022559587 0.019999947 0.067094937 6579300
0.023051763 0.019999949 0.068921201 6579300
0.022554634 0.019999949 0.067787692 6579300
0.021027945 0.019999959 0.066917792 6579300
-0.024170201 0.020000171 0.020910909 6579300
-0.025633568 0.020000178 0.020655788 6579300
-0.028477998 0.020000191 0.015518598 6579300
-0.028027199 0.02000019 0.016119445 6579300
-0.026628591 0.020000182 0.018380972 6579300
-0.028243419 0.02000019 0.017220804 6579300
-0.02619981 0.02000018 0.019127488 6579300
-0.027956866 0.02000019 0.018538766 6579300
-0.026462479 0.020000182 0.017692046 6579300
-0.025764318 0.020000178 0.019868992 6579300
-0.027261432 0.020000186 0.017141461 6579300
-0.022891007 0.020000165 0.022647198 6579300
-0.027164513 0.020000186 0.019044809 6579300
-0.028608382 0.020000193 0.017913075 6579300
-0.027293418 0.020000186 0.016340498 6579300
-0.029776257 0.020000197 0.017284041 6579300
-0.02351572 0.020000169 0.022194963 6579300
-0.022471385 0.020000162 0.021968897 6579300
-0.025680093 0.020000177 0.017965684 6579300
-0.025168076 0.020000175 0.018626196 6579300
-0.024296215 0.020000169 0.019271564 6579300
-0.022124179 0.020000162 0.02274406 6579300
-0.021598943 0.020000158 0.023477292 6579300
-0.023568299 0.020000167 0.020381665 6579300
-0.024475917 0.020000173 0.020084864 6579300
-0.023060989 0.020000163 0.020939123 6579300
0.028272429 0.019999925 0.072973467 6579300
0.02478708 0.019999936 0.068749838 6579300
0.026558531 0.019999932 0.071420804 6579300
0.024882259 0.01999994 0.070207432 6579300
0.023393273 0.019999944 0.067492157 6579300
0.025831128 0.019999934 0.070570439 6579300
0.024502393 0.01999994 0.069469228 6579300
0.0274422 0.019999929 0.072498411 6579300
0.028122168 0.019999929 0.073993586 6579300
0.025647586 0.019999932 0.069354251 6579300
0.03021474 0.019999912 0.072944008 6579300
0.026685093 0.019999929 0.070730984 6579300
0.027454972 0.019999925 0.071277909 6579300
0.026311163 0.019999929 0.069867529 6579300
0.029462302 0.019999916 0.072994374 6579300
0.028900579 0.019999919 0.072553478 6579300
0.024054229 0.019999938 0.067637026 6579300
0.024045015 0.019999942 0.068856083 6579300
0.027101552 0.019999925 0.06984622 6579300
0.028470132 0.019999919 0.07127773 6579300
0.027834442 0.019999923 0.070449926 6579300
0.023732854 0.019999944 0.066063531 6579300
0.023828736 0.019999942 0.066880472 6579300
0.025581498 0.019999934 0.067794718 6579300
0.024839332 0.019999936 0.067801617 6579300
0.026010394 0.019999931 0.068745598 6579300
0.022739513 0.019999947 0.065398946 6579300
0.022960432 0.019999946 0.066263199 6579300
-0.019910488 0.020000141 0.022224728 6579300
-0.025826896 0.020000177 0.017161513 6579300
-0.022109549 0.020000156 0.021116972 6579300
-0.020879159 0.02000015 0.022461368 6579300
-0.027584054 0.020000186 0.015487343 6579300
-0.023537282 0.020000163 0.019429021 6579300
-0.021129938 0.02000015 0.021773275 6579300
-0.022820164 0.02000016 0.019999359 6579300
-0.021661703 0.020000152 0.020550691 6579300
-0.020499894 0.020000149 0.023100311 6579300
0.025043655 0.019999936 0.066516757 6579300
0.024506511 0.019999936 0.06500002 6579300
0.02348342 0.019999942 0.06384334 6579300
0.026061561 0.019999929 0.067061 6579300
0.023591204 0.019999944 0.065370984 6579300
0.023060134 0.019999946 0.064502567 6579300
0.026910236 0.019999927 0.069116145 6579300
-0.020001413 0.020000145 0.021039525 6579300
-0.021522703 0.020000154 0.019568002 6579300
-0.026575528 0.02000018 0.016260412 6579300
-0.024280675 0.020000167 0.01810164 6579300
-0.021012921 0.02000015 0.020151289 6579300
-0.020776963 0.020000149 0.020842915 6579300
-0.023848208 0.020000163 0.01860374 6579300
-0.029396096 0.02000019 0.007248254 6579300
-0.02963618 0.020000193 0.0080816448 6579300
-0.029185241 0.02000019 0.0086945305 6579300
-0.02993557 0.020000193 0.0092645325 6579300
-0.028575245 0.020000184 0.0084138671 6579300
-0.03066875 0.020000201 0.010442302 16711680
0.037347883 0.019999871 0.073926963 6579300
0.036756698 0.019999877 0.075197347 6579300
0.035658959 0.019999884 0.074939169 6579300
-0.027739374 0.020000175 0.0092053823 6579300
-0.02832697 0.020000178 0.0096690869 6579300
-0.030291764 0.020000193 0.011502944 6579300
-0.027369566 0.020000178 0.00827765 6579300
-0.029955383 0.020000197 0.010596428 6579300
-0.029057177 0.02000019 0.0098514976 6579300
-0.029259255 0.020000184 0.01080494 6579300
-0.029588146 0.020000186 0.011604828 6579300
-0.017099408 0.020000126 0.019720428 6579300
-0.017741986 0.020000132 0.020004911 6579300
-0.019995539 0.020000141 0.016377769 6579300
-0.019511195 0.020000139 0.017619083 6579300
-0.02189127 0.02000015 0.013714636 6579300
-0.018847315 0.020000136 0.017907351 6579300
-0.021650711 0.020000149 0.014493654 6579300
-0.017622003 0.020000128 0.018908383 6579300
-0.022453956 0.020000152 0.013316243 6579300
-0.018272555 0.020000137 0.021144824 6579300
-0.021409916 0.02000015 0.015666688 6579300
-0.018467866 0.020000136 0.019461561 6579300
-0.019265056 0.020000141 0.019682577 6579300
-0.020799505 0.020000147 0.016337199 6579300
-0.020526862 0.020000147 0.017126011 6579300
-0.018398205 0.020000136 0.020344539 6579300
-0.019337561 0.020000141 0.018916886 6579300
-0.02354601 0.020000163 0.016441194 6579300
-0.025093008 0.020000173 0.016559839 6579300
-0.020699387 0.020000149 0.018256715 6579300
-0.022733761 0.02000016 0.018186094 6579300
-0.024104709 0.020000167 0.017251804 6579300
-0.021588845 0.020000154 0.018751852 6579300
-0.027019853 0.020000182 0.014673532 6579300
-0.025996493 0.020000177 0.014461242 6579300
-0.023350541 0.02000016 0.014094903 6579300
-0.027831551 0.020000188 0.014710857 6579300
-0.020507732 0.020000149 0.019163283 6579300
-0.024031678 0.020000163 0.014464324 6579300
-0.024945289 0.020000167 0.012931074 6579300
-0.025241947 0.020000171 0.013659654 6579300
-0.021733619 0.020000152 0.016266109 6579300
-0.025244545 0.020000173 0.015231698 6579300
-0.02652991 0.020000178 0.013990965 6579300
-0.022329314 0.02000016 0.018766293 6579300
-0.021546992 0.020000152 0.017638765 6579300
-0.019961707 0.020000147 0.019769803 6579300
-0.026647227 0.02000018 0.015526252 6579300
-0.024375154 0.020000163 0.012210291 6579300
-0.024233304 0.020000163 0.012992365 6579300
-0.022580963 0.020000156 0.01440566 6579300
-0.022457248 0.020000158 0.016928213 6579300
-0.02522869 0.020000171 0.014363198 6579300
-0.024426913 0.020000167 0.015081255 6579300
-0.023914324 0.02000016 0.011657706 6579300
-0.023554133 0.020000165 0.0176962 6579300
-0.024544399 0.020000167 0.013719532 6579300
-0.023679497 0.02000016 0.012504036 6579300
-0.025448911 0.020000175 0.015933454 6579300
-0.022250559 0.020000154 0.015685532 6579300
-0.022260148 0.020000158 0.017638272 6579300
-0.02365033 0.020000163 0.015112492 6579300
-0.019519648 0.020000145 0.020381797 6579300
-0.024266705 0.020000167 0.016066028 6579300
-0.023095107 0.02000016 0.015715748 6579300
-0.02718108 0.020000175 0.0098756244 6579300
-0.027984139 0.020000178 0.010552322 6579300
0.036570702 0.019999877 0.074043632 6579300
-0.02633504 0.020000173 0.0098076658 6579300
-0.026622502 0.020000175 0.010517973 6579300
-0.02892518 0.020000186 0.012159497 6579300
-0.027735261 0.020000182 0.013235571 6579300
-0.026606737 0.020000175 0.01256057 6579300
-0.025736235 0.020000169 0.011610331 6579300
-0.025171176 0.020000167 0.012171258 6579300
-0.024574725 0.020000163 0.011408173 6579300
-0.02602529 0.020000175 0.01302911 6579300
-0.027270656 0.020000178 0.011121331 6579300
-0.027844716 0.020000182 0.011749989 6579300
-0.025149923 0.020000163 0.010922146 6579300
-0.028145824 0.020000182 0.012648796 6579300
-0.029226908 0.02000019 0.013707095 6579300
-0.028676137 0.020000186 0.013111321 6579300
-0.026438257 0.020000171 0.011331619 6579300
-0.025836241 0.020000165 0.010649612 6579300
-0.025044978 0.02000016 0.010199814 6579300
0.036178682 0.019999884 0.072723895 6579300
0.035496369 0.019999884 0.074137442 6579300
0.036917254 0.019999873 0.072532013 6579300
0.02774564 0.019999921 0.065266758 6579300
0.027133742 0.019999923 0.064861417 6579300
0.025493657 0.019999932 0.064044878 6579300
0.024486642 0.019999936 0.063426442 6579300
0.028847538 0.019999916 0.065855898 6579300
0.030807175 0.019999905 0.066949122 6579300
0.032756396 0.019999895 0.067916512 6579300
0.028837012 0.019999916 0.065169834 6579300
0.027838061 0.019999921 0.064484939 6579300
0.02968999 0.019999912 0.065799199 6579300
0.027156303 0.019999921 0.063305773 6579300
0.031551063 0.019999901 0.066761956 6579300
0.025371542 0.019999932 0.062468503 6579300
0.026158301 0.019999929 0.063153319 6579300
0.026702307 0.019999927 0.063814409 6579300
0.030695047 0.019999906 0.068873115 6579300
0.025521128 0.019999931 0.065755002 6579300
0.030597392 0.019999906 0.067776464 6579300
0.027315753 0.019999923 0.06854786 6579300
0.031476155 0.019999901 0.068165131 6579300
0.024290126 0.019999936 0.06418436 6579300
0.029762655 0.019999912 0.072026484 6579300
0.029079672 0.019999914 0.069223255 6579300
0.032314666 0.019999899 0.069565609 6579300
0.033303946 0.019999892 0.068580307 6579300
0.029588778 0.019999914 0.071184672 6579300
0.031207686 0.019999905 0.069331914 6579300
0.027395573 0.019999923 0.067675553 6579300
0.030727373 0.019999906 0.070063718 6579300
0.030802028 0.019999906 0.071600303 6579300
0.028486118 0.019999918 0.068497799 6579300
0.029644739 0.01999991 0.067052633 6579300
0.030014379 0.01999991 0.070253119 6579300
0.031623401 0.019999903 0.07016135 6579300
0.028287793 0.019999919 0.069332466 6579300
0.03011149 0.01999991 0.069443367 6579300
0.026493413 0.019999927 0.066033252 6579300
0.032347716 0.019999897 0.068631075 6579300
0.026619058 0.019999927 0.067483045 6579300
0.027768914 0.019999919 0.066483349 6579300
0.030891273 0.019999906 0.070883855 6579300
0.028459735 0.019999916 0.067087017 6579300
0.030589154 0.019999908 0.072354935 6579300
0.029278714 0.019999912 0.067662261 6579300
0.029916195 0.01999991 0.068630397 6579300
0.028649988 0.019999918 0.069915749 6579300
0.027260261 0.019999921 0.065808512 6579300
0.026060713 0.019999929 0.065217257 6579300
0.025274616 0.019999932 0.064718783 6579300
0.034689087 0.019999893 0.073571824 6579300
0.036722686 0.01999988 0.071673676 6579300
0.034465704 0.019999897 0.074407049 6579300
0.034611478 0.01999989 0.07274621 6579300
0.033463109 0.019999899 0.074570976 6579300
0.035313658 0.019999888 0.072254941 6579300
0.033720333 0.019999893 0.072930917 6579300
0.033022694 0.019999899 0.074008197 6579300
0.035517406 0.019999884 0.071285009 6579300
0.032775018 0.019999899 0.070700794 6579300
0.033610091 0.019999893 0.069408067 6579300
0.033448808 0.019999895 0.07022085 6579300
0.031450376 0.019999906 0.072235271 6579300
0.031866394 0.019999903 0.071701057 6579300
0.031568777 0.019999906 0.073235534 6579300
0.032288421 0.019999901 0.074240766 6579300
0.034525756 0.019999888 0.071694307 6579300
0.033797722 0.01999989 0.071881093 6579300
0.034728751 0.019999884 0.070253566 6579300
0.032507211 0.019999903 0.072946377 6579300
0.033642437 0.019999892 0.071052819 6579300
0.033007834 0.019999897 0.071988888 6579300
-0.020128945 0.020000137 0.01424715 6579300
-0.022055376 0.020000147 0.010992758 6579300
-0.017728139 0.020000126 0.017295551 6579300
-0.021179108 0.020000145 0.013698501 6579300
-0.021355877 0.020000139 0.0097688446 6579300
-0.020592751 0.020000143 0.014944847 6579300
-0.022980103 0.020000154 0.012344237 6579300
-0.018578049 0.020000132 0.016679119 6579300
-0.01984673 0.020000139 0.015650108 6579300
-0.022182815 0.02000015 0.012620362 6579300
-0.01925648 0.020000134 0.015055387 6579300
-0.019229874 0.020000136 0.016427936 6579300
-0.020935312 0.020000139 0.011839985 6579300
-0.020268941 0.020000137 0.013486784 6579300
-0.01887681 0.020000132 0.015778113 6579300
-0.023141151 0.020000154 0.011506839 6579300
-0.021090096 0.020000143 0.012673683 6579300
-0.020020135 0.020000134 0.012412295 6579300
-0.017640818 0.020000126 0.018087555 6579300
-0.021723855 0.020000145 0.012017187 6579300
-0.021141607 0.020000141 0.011103124 6579300
-0.019591108 0.020000134 0.01369178 6579300
-0.016338654 0.020000121 0.016186103 6579300
-0.016293388 0.020000124 0.017247753 6579300
-0.018298829 0.020000128 0.013310201 6579300
-0.019254059 0.020000134 0.012788556 6579300
-0.015518133 0.020000119 0.017371986 6579300
-0.016978215 0.020000122 0.015148618 6579300
-0.014846714 0.020000115 0.018037541 6579300
-0.017128401 0.020000126 0.016009837 6579300
-0.017851392 0.020000128 0.014843988 6579300
-0.017861679 0.020000126 0.016566098 6579300
-0.018597955 0.02000013 0.014940396 6579300
-0.016394584 0.020000122 0.018880412 6579300
-0.017751325 0.020000128 0.015538821 6579300
-0.020242963 0.020000136 0.01175043 6579300
-0.01672153 0.020000124 0.017845228 6579300
-0.016030682 0.020000122 0.017994318 6579300
-0.020861305 0.020000137 0.010493668 6579300
-0.017087782 0.020000126 0.016768973 6579300
-0.018769117 0.020000132 0.013938235 6579300
-0.015965248 0.020000121 0.019500215 6579300
0.029470952 0.01999991 0.063574761 6579300
0.033802625 0.01999989 0.066068232 6579300
0.031870168 0.019999899 0.064645134 6579300
0.032152254 0.019999897 0.065762028 6579300
0.028038694 0.019999918 0.063553169 6579300
0.031194061 0.019999901 0.064271346 6579300
0.029131502 0.019999912 0.064289279 6579300
0.031039938 0.019999903 0.066147774 6579300
0.029863432 0.019999908 0.06415201 6579300
0.034925688 0.019999884 0.066049993 6579300
0.034222141 0.019999888 0.066853166 6579300
0.027187411 0.019999921 0.062364798 6579300
0.032245565 0.019999897 0.067126408 6579300
0.031435717 0.019999901 0.065528691 6579300
0.029577268 0.01999991 0.064899661 6579300
0.030512011 0.019999905 0.065379977 6579300
0.03279645 0.019999893 0.064854547 6579300
0.032960434 0.019999893 0.065573044 6579300
0.026160084 0.019999925 0.061961982 6579300
0.032939874 0.019999893 0.067072071 6579300
0.0339734 0.019999888 0.067576908 6579300
0.031876013 0.019999899 0.063853949 6579300
0.026373316 0.019999927 0.060944118 6579300
0.028583689 0.019999916 0.062098753 6579300
0.027105311 0.019999923 0.06152964 6579300
0.028814189 0.019999914 0.062805593 6579300
0.033482227 0.01999989 0.065080129 6579300
0.030175423 0.019999906 0.063333303 6579300
0.02649338 0.019999925 0.060182173 6579300
0.029408636 0.01999991 0.062093809 6579300
0.032540124 0.019999895 0.064145513 6579300
0.028277164 0.019999916 0.061272055 6579300
0.027048219 0.019999923 0.060727406 6579300
0.03133053 0.019999901 0.063347071 6579300
-0.016951272 0.020000119 0.012711929 6579300
-0.014821013 0.020000109 0.015105961 6579300
-0.018187718 0.020000124 0.011783687 6579300
-0.016345754 0.020000117 0.013077396 6579300
-0.018539928 0.020000126 0.01103267 6579300
-0.017371306 0.020000115 0.0081680883 6579300
-0.019253321 0.02000013 0.010731885 6579300
-0.019549187 0.020000132 0.011453677 6579300
-0.018676847 0.020000124 0.0093510281 6579300
-0.017758841 0.020000122 0.012333764 6579300
-0.016462743 0.020000113 0.0096086208 6579300
-0.01657851 0.020000119 0.013975748 6579300
-0.016021829 0.020000117 0.015364287 6579300
-0.014972954 0.020000109 0.013972482 6579300
-0.018243907 0.020000122 0.009875278 6579300
-0.014722666 0.020000111 0.016148467 6579300
-0.015894204 0.020000111 0.010868397 6579300
-0.016802784 0.020000117 0.010789587 6579300
-0.01729152 0.020000122 0.013832626 6579300
-0.018984172 0.02000013 0.012008547 6579300
-0.020078622 0.020000134 0.01030626 6579300
-0.0153397 0.020000113 0.014619567 6579300
-0.017480385 0.020000119 0.010384874 6579300
-0.014771226 0.020000113 0.017059505 6579300
-0.017499963 0.020000122 0.013142223 6579300
-0.019657953 0.02000013 0.0097196903 6579300
-0.018133629 0.020000121 0.0082928222 6579300
-0.015861263 0.020000115 0.013926188 6579300
-0.015431764 0.020000115 0.015957354 6579300
-0.016418412 0.020000115 0.011405746 6579300
-0.01730301 0.020000119 0.011611092 6579300
-0.015624231 0.020000113 0.013267913 6579300
-0.017478431 0.020000119 0.0093797352 6579300
-0.016114231 0.020000113 0.012343074 6579300
-0.016797237 0.020000113 0.0087607242 6579300
-0.012873222 0.020000102 0.014959227 6579300
-0.014434669 0.020000106 0.011730562 6579300
-0.013870899 0.020000104 0.012766708 6579300
-0.013663162 0.020000102 0.014635019 6579300
-0.012202066 0.020000102 0.016126351 6579300
-0.015268374 0.020000108 0.0099374549 6579300
-0.015126514 0.020000106 0.010641313 6579300
-0.013225109 0.020000104 0.013740547 6579300
-0.012748879 0.0200001 0.016737606 6579300
-0.013971647 0.020000104 0.013497302 6579300
-0.015795559 0.020000108 0.0089918552 6579300
-0.01615824 0.020000109 0.0079046441 6579300
-0.014145856 0.020000108 0.016774265 6579300
-0.013518931 0.020000104 0.016052082 6579300
-0.013680211 0.020000106 0.017547423 6579300
-0.014714448 0.020000108 0.013331524 6579300
-0.015004572 0.020000108 0.012105108 6579300
-0.013063179 0.020000102 0.017942173 6579300
-0.013735819 0.020000108 0.018294107 6579300
0.029111169 0.019999906 0.060172088 6579300
0.034198273 0.019999886 0.064817801 6579300
0.035165247 0.019999875 0.06092352 6579300
0.035582054 0.019999878 0.064436488 6579300
0.035913568 0.019999871 0.061062329 6579300
0.033773575 0.019999882 0.061136324 6579300
0.031749509 0.019999895 0.062377062 6579300
0.032828495 0.019999888 0.060694531 6579300
0.027587824 0.019999914 0.059679281 6579300
0.035374571 0.019999878 0.063749954 6579300
0.034914441 0.019999882 0.065105535 6579300
0.034038492 0.019999884 0.063275695 6579300
0.034875736 0.019999882 0.064359784 6579300
0.036233693 0.019999871 0.062067721 6579300
0.028243067 0.019999912 0.059868671 6579300
0.030560594 0.019999899 0.060342461 6579300
0.03626129 0.019999873 0.064098515 6579300
0.035344511 0.019999875 0.061684553 6579300
0.033148598 0.019999888 0.062023111 6579300
0.032694671 0.019999892 0.063246645 6579300
0.033996046 0.019999886 0.064102702 6579300
0.03402264 0.019999884 0.062498085 6579300
0.029915223 0.019999903 0.060673796 6579300
0.03467463 0.019999878 0.061933298 6579300
0.032421824 0.019999892 0.062190905 6579300
0.030773457 0.019999901 0.062050089 6579300
0.036387492 0.019999871 0.062790707 6579300
0.034466375 0.019999878 0.060470302 6579300
0.031514052 0.019999895 0.061680902 6579300
0.032767441 0.01999989 0.061475381 6579300
0.031950969 0.019999892 0.060406208 6579300
0.029748056 0.019999903 0.059693322 6579300
0.037106793 0.019999865 0.061460845 6579300
0.033202615 0.01999989 0.06395743 6579300
0.03564775 0.019999875 0.062837437 6579300
0.030787703 0.019999899 0.061231393 6579300
0.034793377 0.01999988 0.063170545 6579300
0.033433009 0.019999888 0.062943049 6579300
0.027371157 0.019999918 0.058130912 6579300
0.028309172 0.019999912 0.058896963 6579300
0.030447369 0.019999899 0.059626743 6579300
0.026859567 0.019999918 0.058912925 6579300
0.036655277 0.019999867 0.06071005 6579300
0.032697607 0.019999888 0.059861433 6579300
0.030083008 0.019999903 0.058876052 6579300
0.028958626 0.019999906 0.059278153 6579300
0.031327378 0.019999895 0.059457168 6579300
0.029311765 0.019999908 0.058457308 6579300
0.033581931 0.019999884 0.060024992 6579300
0.035010982 0.019999875 0.059741464 6579300
0.030324329 0.019999899 0.058055047 6579300
0.031064186 0.019999895 0.058449998 6579300
0.028749542 0.019999908 0.057806101 6579300
0.028642341 0.019999906 0.05705332 6579300
0.031808972 0.019999892 0.058599595 6579300
0.034022927 0.01999988 0.058823425 6579300
0.029331163 0.019999903 0.056494787 6579300
0.030327991 0.019999899 0.057031859 6579300
0.036123905 0.019999869 0.060082156 6579300
0.032690905 0.019999886 0.058671053 6579300
0.028466666 0.019999906 0.056401778 6579300
0.030946836 0.019999895 0.057657689 6579300
0.03267663 0.019999888 0.057958949 6579300
-0.021156648 0.020000136 0.0083711464 6579300
-0.021821868 0.020000139 0.0088022361 6579300
-0.020845251 0.020000136 0.0091200899 6579300
-0.020202281 0.020000132 0.0086393114 6579300
-0.019741604 0.020000128 0.007966008 6579300
-0.019460337 0.020000128 0.0085823601 6579300
-0.018883277 0.020000122 0.0078577278 6579300
-0.017144134 0.020000113 0.007252208 6579300
-0.017900575 0.020000117 0.0074488115 6579300
-0.017264461 0.020000111 0.0063653109 6579300
-0.020460391 0.02000013 0.0079584513 6579300
-0.018973429 0.020000126 0.0070365774 6579300
-0.018452926 0.020000128 0.0064679915 6579300
-0.021200089 0.020000132 0.001950869 6579300
-0.022271849 0.020000145 0.0031309337 6579300
-0.017625883 0.020000122 0.0057063284 6579300
-0.020816684 0.020000141 0.0069881412 6579300
-0.019684324 0.020000136 0.0066620545 6579300
-0.021348497 0.020000145 0.0076080118 6579300
-0.018987102 0.02000013 0.0057252152 6579300
-0.022308122 0.02000015 0.007604748 6579300
-0.021050313 0.020000137 0.0029755174 6579300
-0.02175937 0.020000143 0.0036009315 6579300
-0.018353757 0.020000124 0.0051915748 6579300
-0.020383785 0.020000137 0.0060151173 6579300
-0.021509854 0.020000145 0.0064770416 6579300
-0.019652106 0.020000132 0.005619572 6579300
-0.019434767 0.02000013 0.0032429618 6579300
-0.020495534 0.020000136 0.003625772 6579300
-0.022527324 0.020000149 0.0049072681 6579300
-0.021580005 0.020000143 0.004320093 6579300
-0.019424869 0.020000128 0.0047667325 6579300
-0.018610457 0.020000122 0.0044169934 6579300
-0.020852642 0.020000137 0.0053655286 6579300
-0.022208458 0.020000147 0.0062108468 6579300
-0.020343665 0.020000132 0.0045862687 6579300
-0.021602444 0.020000141 0.0052471883 6579300
0.036262941 0.019999871 0.066143759 6579300
0.038229484 0.019999864 0.062642001 6579300
0.037067261 0.019999871 0.063948959 6579300
0.036739934 0.019999871 0.064878047 6579300
0.037015483 0.019999869 0.063232772 6579300
0.038804382 0.01999986 0.061406225 6579300
0.037342139 0.019999865 0.062444147 6579300
0.03593256 0.019999878 0.065427139 6579300
0.037898153 0.01999986 0.063780323 6579300
0.037609071 0.019999862 0.064489014 6579300
0.037204914 0.019999867 0.066007815 6579300
0.037461922 0.019999864 0.065298401 6579300
0.043163847 0.019999832 0.065945573 6579300
0.038791865 0.019999858 0.063607439 6579300
0.038376722 0.019999862 0.064710505 6579300
0.039515972 0.019999851 0.061920833 6579300
0.039403196 0.019999854 0.062939137 6579300
0.037946481 0.019999865 0.066043913 6579300
0.041792091 0.019999847 0.066595279 6579300
0.042452998 0.019999838 0.066082701 6579300
0.038956542 0.019999858 0.065197185 6579300
0.039461039 0.019999856 0.063920513 6579300
0.04012173 0.019999851 0.062240154 6579300
0.040590074 0.019999851 0.06732139 6579300
0.041035086 0.019999847 0.066544943 6579300
0.041820116 0.019999843 0.065753326 6579300
0.041759379 0.019999843 0.065013282 6579300
0.038751513 0.019999858 0.066231646 6579300
0.038430922 0.01999986 0.066991523 6579300
0.039347935 0.019999856 0.065787584 6579300
0.040195078 0.019999852 0.063909046 6579300
0.04046246 0.019999852 0.063195772 6579300
0.03953924 0.019999854 0.064644255 6579300
0.040331297 0.019999849 0.064634301 6579300
0.040258486 0.019999851 0.065406054 6579300
0.039945975 0.019999854 0.066183932 6579300
0.040961169 0.019999845 0.065305524 6579300
0.041565198 0.019999841 0.064353161 6579300
0.039790928 0.019999856 0.066938028 6579300
-0.0091808448 0.02000008 0.014805344 6579300
-0.0084343087 0.020000076 0.016154496 6579300
-0.0093440637 0.02000008 0.013426577 6579300
-0.012168206 0.020000095 0.0085581262 6579300
-0.0090215551 0.02000008 0.015699107 6579300
-0.0098013403 0.020000082 0.012715126 6579300
-0.010385228 0.020000085 0.011618892 6579300
-0.008499383 0.020000076 0.014948091 6579300
-0.011321206 0.020000091 0.010515099 6579300
-0.010671766 0.020000085 0.010815657 6579300
-0.011695672 0.020000095 0.011894421 6579300
-0.010598961 0.020000087 0.012576797 6579300
-0.009870911 0.020000085 0.014696866 6579300
-0.0097204978 0.020000085 0.016249843 6579300
-0.011154779 0.020000093 0.013458021 6579300
-0.01025349 0.020000089 0.015844855 6579300
-0.011643955 0.020000093 0.011188321 6579300
-0.010488873 0.020000087 0.013670553 6579300
-0.010579398 0.020000089 0.014460796 6579300
-0.012169881 0.020000096 0.010242217 6579300
-0.012763724 0.020000098 0.0090453997 6579300
-0.013277375 0.0200001 0.0068326429 6579300
-0.011226026 0.020000093 0.014146392 6579300
-0.011475927 0.020000098 0.016216634 6579300
-0.010789114 0.020000093 0.01534179 6579300
-0.011552667 0.020000098 0.015050123 6579300
-0.01168706 0.020000095 0.012903125 6579300
-0.012902578 0.020000098 0.0081957448 6579300
-0.012388895 0.0200001 0.011566641 6579300
-0.012939954 0.0200001 0.0098794308 6579300
-0.014788595 0.020000104 0.007436452 6579300
-0.014429301 0.020000106 0.010421898 6579300
-0.015301114 0.020000106 0.0069467146 6579300
-0.013471172 0.020000102 0.0091638016 6579300
-0.013490493 0.020000102 0.010321192 6579300
-0.014751845 0.020000106 0.009461388 6579300
-0.01225351 0.0200001 0.013485993 6579300
-0.013602401 0.020000102 0.0084771933 6579300
-0.014224216 0.020000104 0.0088452306 6579300
-0.012330398 0.020000102 0.015462191 6579300
-0.014050305 0.020000104 0.0098284744 6579300
-0.013788907 0.020000104 0.011353809 6579300
-0.013233615 0.020000102 0.012471329 6579300
-0.013281986 0.0200001 0.0076100491 6579300
-0.015351894 0.020000108 0.007824841 6579300
-0.01424288 0.020000104 0.0080111427 6579300
-0.016055794 0.020000108 0.0071068434 6579300
-0.012226963 0.0200001 0.014371433 6579300
-0.013165043 0.020000102 0.010933192 6579300
0.030608186 0.019999893 0.055167161 6579300
0.03246725 0.019999886 0.056072958 6579300
0.029942865 0.019999899 0.055568151 6579300
0.033638258 0.01999988 0.056622256 6579300
0.035328127 0.019999871 0.056987327 6579300
0.029121624 0.019999901 0.054698512 6579300
0.028674379 0.019999901 0.053815391 6579300
0.031513195 0.019999888 0.054408297 6579300
0.030385841 0.019999893 0.054155368 6579300
0.033334557 0.019999878 0.055338826 6579300
0.029403409 0.019999899 0.053431608 6579300
0.034802403 0.019999871 0.055929452 6579300
0.032060094 0.019999884 0.055190023 6579300
0.036332317 0.019999864 0.056675512 6579300
0.030135253 0.019999895 0.053420767 6579300
0.037245955 0.019999862 0.057964079 6579300
0.037397269 0.019999864 0.060444824 6579300
0.034346726 0.019999877 0.057403672 6579300
0.035861056 0.019999869 0.059017338 6579300
0.028899375 0.019999906 0.05568343 6579300
0.03816 0.019999858 0.060343232 6579300
