# .PCD v0.7 - Point Cloud Data file format
VERSION 0.7
FIELDS x y z rgb
SIZE 4 4 4 4
TYPE F F F U
COUNT 1 1 1 1
WIDTH 1055
HEIGHT 1
VIEWPOINT 0 0 0 1 0 0 0
POINTS 1055
DATA ascii
-0.037819255 -0.024617555 0.02705691 6579300
-0.037962522 -0.024815567 0.019627502 6579300
-0.038107574 -0.025016049 0.0264908 6579300
-0.037896067 -0.024723716 0.025686981 6579300
-0.037434462 -0.02411902 0.017630087 6579300
-0.03747879 -0.024175311 0.019312469 6579300
-0.037462723 -0.024154911 0.0088345446 6579300
-0.037660379 -0.024405917 0.011241099 6579300
-0.037478119 -0.024174461 0.016961152 6579300
-0.037604444 -0.024334883 0.01416999 6579300
-0.037636664 -0.024375804 0.025156768 6579300
-0.037722196 -0.024484424 0.009629447 6579300
-0.037731193 -0.024495848 0.018336484 6579300
-0.037558205 -0.024276163 0.021582955 6579300
-0.037724517 -0.024487369 0.013051617 6579300
-0.037500467 -0.02420284 0.027691536 6579300
-0.037668496 -0.024416225 0.026336379 6579300
-0.037281465 -0.023934169 0.0108907 6579300
-0.037095074 -0.023715476 0.011919191 6579300
-0.037192576 -0.023829874 0.012842579 6579300
-0.037101455 -0.023722965 0.019732121 6579300
-0.037090395 -0.023709986 0.0095573654 6579300
-0.037348703 -0.024013061 0.01579337 6579300
-0.037344918 -0.024008621 0.020996034 6579300
-0.037340056 -0.024002913 0.023592474 6579300
-0.037308447 -0.023965828 0.015077312 6579300
-0.037220113 -0.023862187 0.018692162 6579300
-0.037284616 -0.023937866 0.025807565 6579300
-0.037142448 -0.023771062 0.027010825 6579300
-0.037281144 -0.023933792 0.024409279 6579300
-0.03736129 -0.024027828 0.022735091 6579300
-0.036774646 -0.023365559 0.016094506 6579300
-0.037042286 -0.023654828 0.0084837778 6579300
-0.036744379 -0.023332847 0.016935835 6579300
-0.036736548 -0.023324382 0.019079216 6579300
-0.036844764 -0.023441344 0.010460586 6579300
-0.036761478 -0.023351325 0.025314711 6579300
-0.036896437 -0.023497196 0.021688305 6579300
-0.036970858 -0.023577627 0.014563881 6579300
-0.036986291 -0.023594311 0.020466587 6579300
-0.036991682 -0.023600137 0.01811713 6579300
-0.036832262 -0.023427831 0.024479022 6579300
-0.036905821 -0.023507334 0.022881664 6579300
-0.036551185 -0.023138383 0.00854016 6579300
-0.036613747 -0.023200622 0.0096051274 6579300
-0.036435973 -0.023023769 0.014270054 6579300
-0.036633771 -0.023220539 0.01310127 6579300
-0.036677603 -0.023264144 0.012307589 6579300
-0.036525525 -0.023112858 0.026105765 6579300
-0.036604978 -0.023191897 0.019959029 6579300
-0.036287636 -0.022887893 0.010119279 6579300
-0.036328338 -0.022925029 0.01530015 6579300
-0.036209125 -0.022816258 0.01108627 6579300
-0.036406811 -0.022996629 0.02289198 6579300
-0.036212176 -0.02281904 0.02748644 6579300
-0.036336545 -0.022932518 0.02392607 6579300
-0.036281172 -0.022881996 0.021560118 6579300
-0.036327105 -0.022923905 0.02676275 6579300
-0.036074787 -0.022704763 0.0127946 6579300
-0.036090869 -0.022718076 0.015928466 6579300
-0.036025792 -0.022664197 0.0093726004 6579300
-0.036018949 -0.022658534 0.025713407 6579300
-0.036065869 -0.022697376 0.017998809 6579300
-0.036190297 -0.022800393 0.024831776 6579300
-0.036176909 -0.022789311 0.020692302 6579300
-0.036203329 -0.022811184 0.017242284 6579300
-0.035921495 -0.022584265 0.01960953 6579300
-0.035847344 -0.022530897 0.011965887 6579300
-0.043944541 0.019280089 0.017314903 6579300
-0.043751691 0.019713242 0.020572249 6579300
-0.044001255 0.019152708 0.022112356 6579300
-0.044200286 0.018705677 0.026867729 6579300
-0.044236183 0.018625051 0.011638729 6579300
-0.043638218 0.019968109 0.025236145 6579300
-0.044268534 0.018552383 0.020302517 6579300
-0.044278122 0.018530851 0.019493176 6579300
-0.043879591 0.019425971 0.018643377 6579300
-0.043947674 0.01927305 0.019949283 6579300
-0.043624908 0.019998003 0.027963666 6579300
-0.044100478 0.018929852 0.013829277 6579300
-0.043757439 0.01970033 0.023995047 6579300
-0.043912485 0.019352088 0.026250808 6579300
-0.044034284 0.019078525 0.015390951 6579300
-0.043618117 0.020013258 0.026425604 6579300
-0.044066746 0.019005615 0.014572212 6579300
-0.043627542 0.019992091 0.027212732 6579300
-0.044076763 0.018983113 0.020852976 6579300
-0.043628905 0.019989027 0.023243723 6579300
-0.044203397 0.018698687 0.023873301 6579300
-0.043946441 0.019275822 0.027074134 6579300
-0.044054881 0.01903226 0.022895716 6579300
-0.044099741 0.018931506 0.024672877 6579300
-0.044178728 0.018754095 0.012973618 6579300
-0.04339486 0.020514706 0.025929997 6579300
-0.044053439 0.019035501 0.0090734288 6579300
-0.04368186 0.019870091 0.019157786 6579300
-0.043725636 0.019771768 0.017893359 6579300
-0.044028491 0.019091539 0.01030937 6579300
-0.043600645 0.0200525 0.019895626 6579300
-0.043894481 0.019392528 0.012089624 6579300
-0.044170309 0.018773003 0.0080321142 6579300
-0.043542232 0.020183699 0.0087499851 6579300
-0.043592472 0.02007086 0.010046025 6579300
-0.043569986 0.020121364 0.022343852 6579300
-0.044203352 0.018698785 0.0097442577 6579300
-0.043595254 0.020064605 0.011654592 6579300
-0.043700587 0.019828029 0.016601818 6579300
-0.043444585 0.020403018 0.013882215 6579300
-0.043510251 0.020255527 0.015165924 6579300
-0.043544792 0.020177953 0.012414842 6579300
-0.043580942 0.020096755 0.018459909 6579300
-0.043733731 0.019753583 0.014298875 6579300
-0.043904837 0.019369265 0.011233965 6579300
-0.043648139 0.019945825 0.010759795 6579300
-0.043765951 0.01968121 0.01343074 6579300
-0.043775331 0.019660147 0.015622487 6579300
-0.043487042 0.020307658 0.020690667 6579300
-0.043547869 0.020171035 0.017290192 6579300
-0.043822777 0.019553579 0.0083054379 6579300
-0.035424177 -0.022261234 0.024576759 6579300
-0.035647262 -0.022401424 0.015151153 6579300
-0.035236076 -0.022143027 0.026207358 6579300
-0.03551773 -0.022320023 0.021276936 6579300
-0.035722375 -0.022448625 0.022610938 6579300
-0.035070695 -0.022039097 0.027440459 6579300
-0.035141736 -0.022083741 0.025512718 6579300
-0.03573611 -0.022457259 0.023846162 6579300
-0.035775743 -0.022482166 0.013580155 6579300
-0.035492681 -0.022304282 0.016490771 6579300
-0.035355113 -0.022217833 0.018852146 6579300
-0.035555132 -0.022343529 0.027042499 6579300
-0.034953203 -0.021965265 0.017492214 6579300
-0.035792701 -0.02249282 0.0080726612 6579300
-0.035575632 -0.022356411 0.010460169 6579300
-0.035190016 -0.022114081 0.020192631 6579300
-0.035382394 -0.022234976 0.011148067 6579300
-0.035112809 -0.022065565 0.023057014 6579300
-0.035047729 -0.022024665 0.021679485 6579300
-0.035039701 -0.022019621 0.014404616 6579300
-0.035260294 -0.022158245 0.012619587 6579300
-0.03978141 0.014600639 0.024919441 6579300
-0.039716076 0.014571556 0.01790593 6579300
-0.039804619 0.01461097 0.022703227 6579300
-0.039858654 0.014635023 0.010520204 6579300
-0.039855603 0.014633666 0.014004104 6579300
-0.040061191 0.014735144 0.018608969 6579300
-0.040047117 0.014728073 0.01636545 6579300
-0.039989915 0.014699338 0.019682696 6579300
-0.040175933 0.01479825 0.009312775 6579300
-0.040197656 0.014810293 0.021386759 6579300
-0.040140979 0.014778874 0.011243626 6579300
-0.040216789 0.0148209 0.012061812 6579300
-0.040129639 0.014772587 0.02665313 6579300
-0.040166095 0.014792796 0.024015613 6579300
-0.040332261 0.014888489 0.0083774664 6579300
-0.040267546 0.01484977 0.022046076 6579300
-0.040332358 0.014888547 0.020347036 6579300
-0.040369131 0.014910549 0.027419504 6579300
-0.040539611 0.01501701 0.01450084 6579300
-0.040627498 0.015073095 0.0098934015 6579300
-0.040625378 0.015071744 0.01254537 6579300
-0.040504005 0.014994289 0.025601663 6579300
-0.040464573 0.014969124 0.022900218 6579300
-0.040772654 0.015170226 0.013288573 6579300
-0.040798943 0.015188043 0.01760993 6579300
-0.040703878 0.015123609 0.015219465 6579300
-0.040694404 0.01511719 0.019686636 6579300
-0.040777683 0.015173635 0.024702279 6579300
-0.040731631 0.015142421 0.016623057 6579300
-0.040711906 0.015129051 0.020852448 6579300
-0.041238099 0.015500852 0.022665828 6579300
-0.040983796 0.015316568 0.011324985 6579300
-0.041233569 0.015497572 0.018375108 6579300
-0.040948845 0.015291241 0.023278214 6579300
-0.041062851 0.015373856 0.027990842 6579300
-0.041115329 0.015411884 0.027085086 6579300
-0.041110214 0.015408179 0.026029693 6579300
-0.041104775 0.015404237 0.020191703 6579300
-0.041104201 0.015403822 0.02526791 6579300
-0.041487932 0.015694138 0.013275501 6579300
-0.041513093 0.015713653 0.023340434 6579300
-0.041443273 0.015659492 0.017299645 6579300
-0.041558564 0.015748926 0.02097342 6579300
-0.041462712 0.015674572 0.0087173628 6579300
-0.041371867 0.015604103 0.010206994 6579300
-0.041342966 0.015581685 0.012452546 6579300
-0.041303109 0.015550768 0.0094754724 6579300
-0.041505162 0.015707502 0.014287937 6579300
-0.041376438 0.015607649 0.024535105 6579300
-0.04152596 0.015723636 0.027630163 6579300
-0.041351318 0.015588162 0.016565673 6579300
-0.041362803 0.015597072 0.015319573 6579300
-0.041917466 0.016045609 0.0096649677 6579300
-0.041802414 0.015950322 0.018304016 6579300
-0.041861791 0.015999498 0.015794527 6579300
-0.042136092 0.016238566 0.013012597 6579300
-0.042016752 0.016132643 0.0085413158 6579300
-0.042085718 0.016193856 0.019059397 6579300
-0.041976191 0.016096642 0.012192606 6579300
-0.041668508 0.015839417 0.021970073 6579300
-0.041621864 0.015800787 0.019747766 6579300
-0.041803882 0.015951537 0.022685904 6579300
-0.041660909 0.015833125 0.026173025 6579300
-0.042554416 0.016623387 0.016193621 6579300
-0.042461637 0.016535284 0.010156137 6579300
-0.042684428 0.016746841 0.0093777534 6579300
-0.042404186 0.016480731 0.013842914 6579300
-0.042383775 0.016461348 0.015383041 6579300
-0.042468674 0.016541967 0.018508086 6579300
-0.042337824 0.016417716 0.017271465 6579300
-0.042294059 0.016378772 0.011468548 6579300
-0.042031631 0.01614585 0.024554627 6579300
-0.042257234 0.016346088 0.02019323 6579300
-0.04232889 0.01640969 0.023363493 6579300
-0.041972246 0.01609314 0.026866987 6579300
-0.042244017 0.016334359 0.014600016 6579300
-0.042295232 0.016379816 0.02182165 6579300
-0.042080212 0.016188968 0.025332529 6579300
-0.04293767 0.017000258 0.013669353 6579300
-0.042749677 0.016810318 0.022292543 6579300
-0.043010566 0.017073909 0.011929209 6579300
-0.042733826 0.0167943 0.012849843 6579300
-0.043044366 0.01710806 0.010489992 6579300
-0.042387683 0.016465059 0.026308417 6579300
-0.042639699 0.016704367 0.027471967 6579300
-0.042613816 0.01667979 0.021243989 6579300
-0.042628966 0.016694177 0.025326759 6579300
-0.042614516 0.016680457 0.019635053 6579300
-0.043015838 0.017079234 0.014653553 6579300
-0.042979836 0.017042864 0.023040915 6579300
-0.043098498 0.017162753 0.01955332 6579300
-0.043054435 0.017118234 0.026942685 6579300
-0.043010648 0.017073995 0.017344633 6579300
-0.042846192 0.016907832 0.023978453 6579300
-0.042969983 0.017032906 0.018100467 6579300
-0.043063786 0.017127683 0.024800314 6579300
-0.043353882 0.017437883 0.0089497501 6579300
-0.043567304 0.017667986 0.022931812 6579300
-0.043232553 0.017307065 0.01121833 6579300
-0.04348233 0.017576372 0.0097274734 6579300
-0.04336587 0.017450806 0.01677124 6579300
-0.043477118 0.017570753 0.020309981 6579300
-0.043371759 0.017457156 0.0081942827 6579300
-0.04357677 0.017678194 0.02487506 6579300
-0.043343302 0.017426472 0.014131722 6579300
-0.043471444 0.017564634 0.018805461 6579300
-0.043477703 0.017571382 0.014894875 6579300
-0.043323345 0.017404959 0.02133951 6579300
-0.043253582 0.017329739 0.015723448 6579300
-0.043296982 0.017376531 0.023717452 6579300
-0.043214161 0.017287239 0.013066906 6579300
-0.043110408 0.017175375 0.025541224 6579300
-0.043161657 0.017230628 0.026258618 6579300
-0.043313906 0.017394781 0.022378618 6579300
-0.043935958 0.018087747 0.018970096 6579300
-0.043853927 0.01799405 0.01009171 6579300
-0.043750774 0.017876234 0.016202647 6579300
-0.043876681 0.018020041 0.02213054 6579300
-0.043827608 0.017963991 0.020940293 6579300
-0.043905035 0.018052427 0.011855787 6579300
-0.043818209 0.017953258 0.013666998 6579300
-0.043861639 0.01800286 0.010811503 6579300
-0.043881908 0.018026009 0.019740129 6579300
-0.043639425 0.017749054 0.012739437 6579300
-0.043760926 0.017887829 0.027575873 6579300
-0.043795995 0.017927883 0.026705455 6579300
-0.044265915 0.018480983 0.021494862 6579300
-0.044042688 0.01821471 0.0088033043 6579300
-0.044104211 0.018288096 0.016792793 6579300
-0.044183262 0.018382389 0.015895795 6579300
-0.04424182 0.018452238 0.025268573 6579300
-0.044225425 0.018432682 0.018450042 6579300
-0.044259787 0.01847367 0.027888974 16711680
-0.043960206 0.018116323 0.017862348 6579300
-0.044054434 0.018228721 0.015246602 6579300
-0.044024084 0.018192517 0.023163678 6579300
-0.043997139 0.018160375 0.024560964 6579300
-0.035088938 -0.021666333 0.0089170244 6579300
-0.03538255 -0.021157771 0.0083387084 6579300
-0.035880588 -0.020295139 0.013445299 6579300
-0.035214581 -0.021448711 0.015825691 6579300
-0.035681374 -0.020640191 0.014354644 6579300
-0.036174085 -0.019786783 0.010104597 6579300
-0.035352055 -0.021210594 0.020826954 6579300
-0.034951206 -0.021904889 0.024075944 6579300
-0.035185002 -0.021499939 0.015024147 6579300
-0.035159506 -0.021544101 0.010710852 6579300
-0.035228606 -0.021424418 0.020066302 6579300
-0.035715833 -0.020580508 0.011779647 6579300
-0.035205226 -0.02146491 0.022196528 6579300
-0.035320956 -0.021264458 0.01151152 6579300
-0.035771448 -0.020484177 0.012786594 6579300
-0.035437301 -0.021062944 0.019423231 6579300
-0.035008155 -0.021806249 0.026783224 6579300
-0.035867438 -0.02031792 0.0080207819 6579300
-0.035584755 -0.02080754 0.0090818238 6579300
-0.035224386 -0.021431725 0.013954937 6579300
-0.035454057 -0.021033917 0.010163143 6579300
-0.035514783 -0.020928737 0.017086631 6579300
-0.035240103 -0.021404501 0.0096120993 6579300
-0.035197534 -0.021478234 0.013266596 6579300
-0.036099542 -0.019915897 0.011954688 6579300
-0.035843164 -0.020359961 0.011052014 6579300
-0.035506349 -0.020943346 0.018706365 6579300
-0.035154957 -0.02155198 0.016619425 6579300
-0.035022877 -0.021780754 0.019306941 6579300
-0.035715543 -0.020581011 0.015943589 6579300
-0.035531342 -0.020900054 0.01515786 6579300
-0.035819579 -0.020400811 0.0097065875 6579300
-0.035975602 -0.020130571 0.0088893306 6579300
-0.035200622 -0.021472886 0.012411604 6579300
-0.035236958 -0.021409946 0.018082405 6579300
-0.035294648 -0.021310024 0.024659768 6579300
-0.036422368 -0.019356739 0.010854 6579300
-0.036315296 -0.019542195 0.027379658 6579300
-0.035976466 -0.020129072 0.027658883 6579300
-0.035730943 -0.020554332 0.024595734 6579300
-0.035984203 -0.02011567 0.023059523 6579300
-0.03610627 -0.019904245 0.024435511 6579300
-0.036410276 -0.019377684 0.013434631 6579300
-0.036089126 -0.019933937 0.02513022 6579300
-0.035789222 -0.020453393 0.025710305 6579300
-0.035698909 -0.02060982 0.022347029 6579300
-0.035552401 -0.020863583 0.026471393 6579300
-0.035600431 -0.020780386 0.027712516 6579300
-0.036441445 -0.019323695 0.020292373 6579300
-0.036443993 -0.019319287 0.014797087 6579300
-0.036115598 -0.019888088 0.014425014 6579300
-0.036141664 -0.019842941 0.012889123 6579300
-0.03610779 -0.019901613 0.01808173 6579300
-0.036074884 -0.019958608 0.021099703 6579300
-0.035769302 -0.020487893 0.020476805 6579300
-0.03586936 -0.020314591 0.019174324 6579300
-0.036200002 -0.019741893 0.026475776 6579300
-0.036373977 -0.019440558 0.017631439 6579300
-0.036427826 -0.01934729 0.025957238 6579300
-0.035845663 -0.020355633 0.016807353 6579300
-0.03534675 -0.021219784 0.025761651 6579300
-0.035737071 -0.020543721 0.021422546 6579300
-0.035734113 -0.020548847 0.023641111 6579300
-0.03555683 -0.020855911 0.022973631 6579300
-0.036422249 -0.019356947 0.009186144 6579300
-0.035820704 -0.020398865 0.017638505 6579300
-0.035381529 -0.021159543 0.023713449 6579300
-0.036138188 -0.019848961 0.016048549 6579300
-0.03940763 0.014457066 0.026562566 6579300
-0.0390407 0.014322455 0.017907461 6579300
-0.038780715 0.014227078 0.027015155 6579300
-0.038869489 0.014259647 0.02270666 6579300
-0.038915485 0.014276519 0.025737911 6579300
-0.039171953 0.014370606 0.018733434 6579300
-0.039228454 0.014391335 0.024260486 6579300
-0.038865618 0.014258225 0.016053364 6579300
-0.03891341 0.014275759 0.014482141 6579300
-0.039373435 0.014444522 0.023401992 6579300
-0.038887687 0.014266322 0.025037484 6579300
-0.039627552 0.014537745 0.017130926 6579300
-0.039697949 0.014563571 0.027409175 6579300
-0.039661501 0.014550199 0.014698277 6579300
-0.039345413 0.014434242 0.01954812 6579300
-0.039610066 0.014531329 0.013394322 6579300
-0.039681543 0.014557553 0.025619788 6579300
-0.039620277 0.014535076 0.021894626 6579300
-0.039486643 0.014486051 0.0085689686 6579300
-0.039481387 0.014484123 0.011280883 6579300
-0.0394122 0.014458743 0.01557274 6579300
-0.039227076 0.014390828 0.012376287 6579300
-0.039358269 0.014438958 0.020980159 6579300
-0.03923415 0.014393423 0.0094851069 6579300
-0.037119906 -0.019615801 0.013110283 6579300
-0.036556162 -0.019317893 0.016074441 6579300
-0.036555149 -0.019317357 0.02462402 6579300
-0.036494058 -0.019285074 0.018546704 6579300
-0.036975645 -0.019539569 0.013844964 6579300
-0.037115157 -0.019613292 0.0092373518 6579300
-0.036602858 -0.019342571 0.022278117 6579300
-0.036513884 -0.019295553 0.023252118 6579300
-0.036481809 -0.019278601 0.011744279 6579300
-0.036648106 -0.01936648 0.02394167 6579300
-0.036953896 -0.019528076 0.01121287 6579300
-0.037341725 -0.019733021 0.01574323 6579300
-0.037104148 -0.019607475 0.026025752 6579300
-0.037215993 -0.01966658 0.027022516 6579300
-0.03724749 -0.019683223 0.014948615 6579300
-0.037335265 -0.019729609 0.010502238 6579300
-0.037065744 -0.019587182 0.019226408 6579300
-0.036880437 -0.019489255 0.021309102 6579300
-0.037271582 -0.019695954 0.012264577 6579300
-0.037287008 -0.019704107 0.024815468 6579300
-0.037372176 -0.019749112 0.0086042583 6579300
-0.037312839 -0.019717757 0.023400763 6579300
-0.037385479 -0.019756142 0.022468138 6579300
-0.037079085 -0.01959423 0.017037438 6579300
-0.038946774 0.013528327 0.027385619 6579300
-0.039300155 0.012440744 0.026371595 6579300
-0.039388951 0.012167457 0.021047603 6579300
-0.039503612 0.011814565 0.019525647 6579300
-0.039251912 0.012589217 0.020454742 6579300
-0.039516419 0.011775151 0.011604414 6579300
-0.039164219 0.01285911 0.025513323 6579300
-0.038920984 0.013607703 0.026498565 6579300
-0.039197776 0.012755823 0.018262295 6579300
-0.038931184 0.013576313 0.025705362 6579300
-0.03905794 0.013186199 0.024059815 6579300
-0.039252434 0.012587614 0.027272712 6579300
-0.039256405 0.012575386 0.024697706 6579300
-0.039095506 0.013070581 0.022634525 6579300
-0.039372399 0.012218392 0.025401946 6579300
-0.039639201 0.011397275 0.021154778 6579300
-0.039532039 0.011727083 0.012964449 6579300
-0.03960469 0.011503484 0.010098677 6579300
-0.039462972 0.011939644 0.015853366 6579300
-0.039356019 0.012268812 0.023517158 6579300
-0.039551448 0.011667348 0.024145167 6579300
-0.039455213 0.01196353 0.020250246 6579300
-0.039676622 0.011282104 0.02213084 6579300
-0.039428324 0.012046282 0.016961914 6579300
-0.039393179 0.01215444 0.018512463 6579300
-0.039308168 0.012416079 0.022289755 6579300
-0.039188474 0.012784453 0.021313721 6579300
-0.039251458 0.012590609 0.017499449 6579300
-0.038956307 0.013498991 0.024733461 6579300
-0.039481033 0.011884063 0.014859431 6579300
-0.039114196 0.013013057 0.019808827 6579300
-0.039010737 0.013331469 0.013306716 6579300
-0.0389251 0.013595029 0.023037333 6579300
-0.038962144 0.013481023 0.015489319 6579300
-0.039087527 0.013095143 0.010275668 6579300
-0.038765188 0.014087189 0.015183908 6579300
-0.039274938 0.012518351 0.01638866 6579300
-0.039296072 0.012453312 0.014172606 6579300
-0.038768869 0.014075859 0.011461996 6579300
-0.039021458 0.013298471 0.01774312 6579300
-0.038910381 0.013640333 0.010953238 6579300
-0.038854759 0.013811519 0.019484788 6579300
-0.039083753 0.01310675 0.011606489 6579300
-0.03921603 0.012699645 0.0081149591 6579300
-0.039414629 0.012088423 0.013528675 6579300
-0.039099298 0.013058911 0.019022873 6579300
-0.039025262 0.013286766 0.02051972 6579300
-0.038970646 0.013454855 0.016247008 6579300
-0.038992699 0.013386991 0.014420892 6579300
-0.039531764 0.011727933 0.0094322423 6579300
-0.038841687 0.013851748 0.017352212 6579300
-0.038900111 0.013671938 0.021204034 6579300
-0.038860448 0.013794015 0.022119422 6579300
-0.039328486 0.012353545 0.011006569 6579300
-0.038868267 0.01376994 0.010212203 6579300
-0.03931994 0.012379852 0.0091168536 6579300
-0.039365131 0.012240769 0.010324406 6579300
-0.038964193 0.013474712 0.012321492 6579300
-0.039165501 0.012855162 0.01564944 6579300
-0.039278183 0.012508367 0.011941458 6579300
-0.039007269 0.013342148 0.0081920158 6579300
-0.038759656 0.014104209 0.013802304 6579300
-0.038801521 0.013975364 0.013059587 6579300
-0.038800906 0.013977263 0.020221535 6579300
-0.03901507 0.01331814 0.0094903111 6579300
-0.038740009 0.014164677 0.023610251 6579300
-0.037453223 -0.019786432 0.024053834 6579300
-0.037401494 -0.019763397 0.018103518 6579300
-0.037449114 -0.019784601 0.020715997 6579300
-0.037546255 -0.019827861 0.019938469 6579300
-0.037620097 -0.019858265 0.018915888 6579300
-0.037682034 -0.019882448 0.011196662 6579300
-0.037753001 -0.019910155 0.021904495 6579300
-0.037947051 -0.019977588 0.011908273 6579300
-0.037890952 -0.019958274 0.017048981 6579300
-0.037768938 -0.019916268 0.012877138 6579300
-0.03808805 -0.020021504 0.019488404 6579300
-0.038094785 -0.020023579 0.014186629 6579300
-0.03804237 -0.020007445 0.026063483 6579300
-0.038022436 -0.020001307 0.025293862 6579300
-0.037982896 -0.019989137 0.023292324 6579300
-0.037977193 -0.019987382 0.0096293474 6579300
-0.038085345 -0.020020673 0.027598353 6579300
-0.038349457 -0.02009598 0.01345592 6579300
-0.038197447 -0.020053945 0.0085200239 6579300
-0.038235288 -0.02006441 0.020274945 6579300
-0.038388629 -0.020106811 0.026794091 6579300
-0.038174778 -0.020047678 0.018169044 6579300
-0.038241521 -0.020066133 0.015062443 6579300
-0.038542744 -0.020145876 0.015843119 6579300
-0.038596168 -0.020159068 0.011431392 6579300
-0.038432788 -0.020118726 0.024669822 6579300
-0.038528692 -0.020142406 0.021599697 6579300
-0.038955685 -0.02024013 0.00904701 6579300
-0.039104003 -0.020271845 0.013861105 6579300
-0.039108399 -0.020272786 0.010057835 6579300
-0.038894698 -0.020227088 0.016463183 6579300
-0.039075226 -0.020265691 0.023829194 6579300
-0.038767263 -0.020199839 0.025277579 6579300
-0.038938072 -0.020236364 0.022591496 6579300
-0.038827054 -0.020212624 0.018406026 6579300
-0.038922586 -0.020233052 0.026143754 6579300
-0.03919927 -0.020289706 0.010924034 6579300
-0.039793931 -0.020387882 0.0089123286 6579300
-0.03968896 -0.020372443 0.016558308 6579300
-0.039138049 -0.02027869 0.015435103 6579300
-0.039256319 -0.020299971 0.021040581 6579300
-0.039176919 -0.020285685 0.017597048 6579300
-0.039127648 -0.020276818 0.019545518 6579300
-0.039210469 -0.020291721 0.012423992 6579300
-0.039592974 -0.020358324 0.027024833 6579300
-0.039918479 -0.020406201 0.017944187 6579300
-0.03981173 -0.020390501 0.020324264 6579300
-0.039669022 -0.020369509 0.023162838 6579300
-0.039864562 -0.020398272 0.024457216 6579300
-0.039823931 -0.020392295 0.015820438 6579300
-0.039797466 -0.020388402 0.019067997 6579300
-0.039945628 -0.020410195 0.010418609 6579300
-0.040495224 -0.020473685 0.020511862 6579300
-0.040517114 -0.020476144 0.018940698 6579300
-0.040409867 -0.020464096 0.011999113 6579300
-0.040388227 -0.020461665 0.017024614 6579300
-0.040325958 -0.020454671 0.026114183 6579300
-0.040330797 -0.020455215 0.022515006 6579300
-0.040015385 -0.020419784 0.027683247 6579300
-0.040012389 -0.020419447 0.013292814 6579300
-0.040257324 -0.020446962 0.019791376 6579300
-0.040167358 -0.020436855 0.021162834 6579300
-0.040319704 -0.020453969 0.025104182 6579300
-0.040105503 -0.020429907 0.014546941 6579300
-0.040941339 -0.020509761 0.015581736 6579300
-0.040584743 -0.020481817 0.0092343027 6579300
-0.040683575 -0.020489562 0.0099160969 6579300
-0.040643666 -0.020486435 0.010687391 6579300
-0.040825959 -0.02050072 0.014389642 6579300
-0.040712681 -0.020491842 0.012764635 6579300
-0.040548425 -0.020478971 0.0081429463 6579300
-0.04067814 -0.020489136 0.023304367 6579300
-0.0406233 -0.020484839 0.026906986 6579300
-0.04076381 -0.020495849 0.017744685 6579300
-0.041372899 -0.020533906 0.018158317 6579300
-0.041563831 -0.020542925 0.016022798 6579300
-0.041407216 -0.020535529 0.008993444 6579300
-0.041520979 -0.020540902 0.014107747 6579300
-0.041285738 -0.02052979 0.013464019 6579300
-0.041136708 -0.020522751 0.011531536 6579300
-0.041369338 -0.020533739 0.023718158 6579300
-0.041088372 -0.020520467 0.021562632 6579300
-0.041328095 -0.02053179 0.027258314 6579300
-0.041174788 -0.020524548 0.02016685 6579300
-0.041215681 -0.02052648 0.016657623 6579300
-0.041285101 -0.02052976 0.025458818 6579300
-0.04124767 -0.020527992 0.02461214 6579300
-0.041778821 -0.020547196 0.012660143 6579300
-0.042295285 -0.020554822 0.020301098 6579300
-0.042033516 -0.020550957 0.011244031 6579300
-0.042106573 -0.020552035 0.017188322 6579300
-0.04229736 -0.020554852 0.015877578 6579300
-0.041680645 -0.020545745 0.010144181 6579300
-0.042300392 -0.020554896 0.026078928 6579300
-0.041849256 -0.020548236 0.027781274 6579300
-0.041858468 -0.020548372 0.022235334 6579300
-0.041879177 -0.020548677 0.023005506 6579300
-0.042093068 -0.020551836 0.025223235 6579300
-0.0416288 -0.020544982 0.015017409 6579300
-0.041655853 -0.02054538 0.018992933 6579300
-0.041831158 -0.020547969 0.026627099 6579300
-0.042771906 -0.020548671 0.0098053049 6579300
-0.042625573 -0.020550709 0.0083362432 6579300
-0.042800382 -0.020548277 0.023222646 6579300
-0.042689558 -0.020549819 0.015317972 6579300
-0.042581487 -0.020551322 0.012601967 6579300
-0.042760395 -0.020548832 0.010768665 6579300
-0.042826843 -0.020547908 0.017347405 6579300
-0.042351235 -0.020554526 0.018265434 6579300
-0.042535182 -0.020551967 0.027474009 6579300
-0.042459961 -0.020553013 0.013815111 6579300
-0.042553566 -0.020551709 0.019088525 6579300
-0.042645417 -0.020550432 0.02438252 6579300
-0.042474575 -0.020552808 0.014485127 6579300
-0.04251622 -0.020552229 0.022531236 6579300
-0.042380318 -0.020554122 0.021727478 6579300
-0.043178443 -0.020535994 0.018160671 6579300
-0.043300282 -0.020531686 0.011856447 6579300
-0.043375067 -0.020529043 0.023797115 6579300
-0.043187156 -0.020535687 0.0088653257 6579300
-0.043090485 -0.020539105 0.015999625 6579300
-0.043140087 -0.02053735 0.026407808 6579300
-0.043300092 -0.020531693 0.027257286 6579300
-0.043037608 -0.020540975 0.020301474 6579300
-0.043112945 -0.020538311 0.024950188 6579300
-0.039995946 0.011358401 0.026382102 6579300
-0.039902095 0.011331747 0.024857216 6579300
-0.040335376 0.011454797 0.018072478 6579300
-0.040067233 0.011378646 0.027895274 6579300
-0.040391859 0.011470838 0.01481782 6579300
-0.040517934 0.011506642 0.015899997 6579300
-0.040379643 0.011467368 0.023077019 6579300
-0.040265337 0.011434906 0.019453874 6579300
-0.040168125 0.011407299 0.018737253 6579300
-0.039995428 0.011358254 0.025671056 6579300
-0.040092729 0.011385886 0.027103858 6579300
-0.039760448 0.01129152 0.015528994 6579300
-0.039772674 0.011294992 0.008351733 6579300
-0.040562566 0.011519318 0.010246114 6579300
-0.040251106 0.011430864 0.0093898196 6579300
-0.039691832 0.011272033 0.017772723 6579300
-0.040120475 0.011393766 0.014104523 6579300
-0.040107831 0.011390175 0.013333875 6579300
-0.039698031 0.011273794 0.016335962 6579300
-0.040024772 0.011366587 0.017155945 6579300
-0.0398563 0.011318742 0.01108332 6579300
-0.040287789 0.011441282 0.01239175 6579300
-0.043393966 -0.02051671 0.019153049 6579300
-0.04342534 -0.020446243 0.022458164 6579300
-0.043465313 -0.020356469 0.01661586 6579300
-0.043581996 -0.020094389 0.012335099 6579300
-0.043957494 -0.019250996 0.027047304 6579300
-0.043446124 -0.020399565 0.020971114 6579300
-0.044156775 -0.018803407 0.025813963 6579300
-0.043904975 -0.019368956 0.024568999 6579300
-0.04369811 -0.019833587 0.022279067 6579300
-0.043419849 -0.020458575 0.015280186 6579300
-0.043632105 -0.019981837 0.026675787 6579300
-0.043725379 -0.01977234 0.020034406 6579300
-0.043587055 -0.020083023 0.018477367 6579300
-0.043939594 -0.019291205 0.021232612 6579300
-0.043403048 -0.020496313 0.014249613 6579300
-0.043603245 -0.020046657 0.025906749 6579300
-0.043575026 -0.020110043 0.017342234 6579300
-0.043786839 -0.019634303 0.023529667 6579300
-0.043926056 -0.019321606 0.025378764 6579300
-0.043440953 -0.02041118 0.010593637 6579300
-0.043437138 -0.020419743 0.013566336 6579300
-0.043859899 -0.0194702 0.01327684 6579300
-0.043923639 -0.019327035 0.0086660869 6579300
-0.043844823 -0.019504067 0.017403867 6579300
-0.04428057 -0.018525356 0.01062087 6579300
-0.044237141 -0.018622894 0.017603323 6579300
-0.043986574 -0.019185688 0.020494504 6579300
-0.043526407 -0.020219238 0.0099590598 6579300
-0.043820731 -0.019558178 0.014615259 6579300
-0.043806743 -0.019589597 0.0080560846 6579300
-0.044285946 -0.018513275 0.016471151 6579300
-0.043772612 -0.019666255 0.01592003 6579300
-0.043942899 -0.019283781 0.019452222 6579300
-0.04419006 -0.018728646 0.0198946 6579300
-0.043770783 -0.019670362 0.011330741 6579300
-0.044137642 -0.01884638 0.023406042 6579300
-0.044159591 -0.018797081 0.015884597 6579300
-0.044002466 -0.019149989 0.016704397 6579300
-0.044032697 -0.019082092 0.014188264 6579300
-0.043766901 -0.019679077 0.01065233 6579300
-0.044049323 -0.019044746 0.012261522 6579300
-0.044023205 -0.019103412 0.022072224 6579300
-0.04407762 -0.018981187 0.018270219 6579300
-0.044235308 -0.018627018 0.025042446 6579300
-0.044249818 -0.018594423 0.013523512 6579300
-0.044054821 -0.019032396 0.015134928 6579300
-0.043979857 -0.019200768 0.0094763823 6579300
-0.044062138 -0.019015962 0.011186535 6579300
-0.046186619 0.011184118 0.018644053 6579300
-0.046386756 0.011136129 0.024713092 6579300
-0.046181984 0.01118523 0.019840142 6579300
-0.046609443 0.011082732 0.016713507 6579300
-0.0465464 0.011097848 0.022025554 6579300
-0.046150383 0.011192807 0.022884078 6579300
-0.046359554 0.011142652 0.025819549 6579300
-0.045941763 0.01124283 0.024211522 6579300
-0.046607442 0.011083212 0.023494177 6579300
-0.046538893 0.011099649 0.014272603 6579300
-0.046377309 0.011138394 0.027387047 6579300
-0.046248145 0.011169366 0.0097580608 6579300
-0.046157029 0.011191214 0.015097328 6579300
-0.046078745 0.011209984 0.015880361 6579300
-0.04583206 0.011269135 0.017923724 6579300
-0.04590397 0.011251892 0.016721403 6579300
-0.045848355 0.011265229 0.010442571 6579300
-0.04572292 0.011295305 0.021775646 6579300
-0.046117444 0.011200705 0.013285232 6579300
-0.046200976 0.011180676 0.0090164673 6579300
-0.046365112 0.011141319 0.010927935 6579300
-0.046370193 0.011140101 0.0080575505 6579300
-0.045848142 0.011265279 0.02052735 6579300
-0.045327652 0.01137247 0.011087397 6579300
-0.045607168 0.011317954 0.013894057 6579300
-0.04566456 0.011306761 0.012073321 6579300
-0.045095697 0.01141771 0.010092298 6579300
-0.045265529 0.011384587 0.0093188537 6579300
-0.04507729 0.0114213 0.013125554 6579300
-0.045310784 0.011375761 0.014568219 6579300
-0.045522742 0.01133442 0.015508701 6579300
-0.045565072 0.011326164 0.018958056 6579300
-0.04486645 0.011462422 0.027898539 6579300
-0.045071684 0.011422393 0.01750242 6579300
-0.045123015 0.011412382 0.022245282 6579300
-0.045066755 0.011423355 0.019739429 6579300
-0.04521827 0.011393804 0.025137646 6579300
-0.044870794 0.011461575 0.021138001 6579300
-0.045502745 0.011338321 0.027443407 6579300
-0.045321807 0.01137361 0.02612129 6579300
-0.045116119 0.011413727 0.023695484 6579300
-0.044146761 0.011572232 0.021796091 6579300
-0.044390801 0.011535672 0.019252123 6579300
-0.044487834 0.011521134 0.009286386 6579300
-0.044318158 0.011546554 0.010097914 6579300
-0.044154324 0.0115711 0.02499477 6579300
-0.044371951 0.011538495 0.013323419 6579300
-0.044173945 0.01156816 0.01990417 6579300
-0.044793524 0.011475337 0.0081026517 6579300
-0.044299152 0.011549402 0.012435354 6579300
-0.044275545 0.011552939 0.017948767 6579300
-0.044659607 0.011495399 0.018545592 6579300
-0.044259049 0.01155541 0.025713563 6579300
-0.0446265 0.011500359 0.01486278 6579300
-0.044626169 0.011500409 0.016937107 6579300
-0.044399843 0.011534316 0.022913277 6579300
-0.044660416 0.011495278 0.024551312 6579300
-0.044788118 0.011476146 0.01173468 6579300
-0.044530854 0.011514689 0.026936429 6579300
-0.044531699 0.011514562 0.016197214 6579300
-0.043550134 0.011638215 0.016723303 6579300
-0.04362097 0.011630627 0.018701557 6579300
-0.043590229 0.01163392 0.015654802 6579300
-0.043535829 0.011639747 0.013564855 6579300
-0.043829422 0.011608301 0.0093913991 6579300
-0.043503128 0.01164325 0.012458147 6579300
-0.043453213 0.011648596 0.017800044 6579300
-0.043945882 0.011595827 0.011815732 6579300
-0.043776903 0.011613925 0.010966771 6579300
-0.04365804 0.011626657 0.0086753052 6579300
-0.043845888 0.011606537 0.024250751 6579300
-0.043795012 0.011611986 0.02743715 6579300
-0.044085365 0.011580886 0.014242262 6579300
-0.043994773 0.01159059 0.023481073 6579300
-0.043758374 0.011615911 0.020783676 6579300
-0.044008311 0.01158914 0.026334621 6579300
-0.04391849 0.01159876 0.01498748 6579300
-0.04289614 0.011685497 0.012996049 6579300
-0.043050844 0.011675272 0.016072085 6579300
-0.043054838 0.011675009 0.014130866 6579300
-0.042894159 0.011685628 0.01173017 6579300
-0.043002166 0.01167849 0.010991846 6579300
-0.043423627 0.011650633 0.020029707 6579300
-0.043287236 0.011659648 0.025066461 6579300
-0.043242835 0.011662583 0.01925664 6579300
-0.043419015 0.011650938 0.021461036 6579300
-0.043155987 0.011668323 0.025747692 6579300
-0.043284029 0.01165986 0.023610996 6579300
-0.043253627 0.011661869 0.022525458 6579300
-0.042841833 0.011687471 0.0084460815 6579300
-0.042457156 0.011697933 0.024229014 6579300
-0.042469464 0.011697598 0.019693905 6579300
-0.04239234 0.011699696 0.012474566 6579300
-0.042658407 0.011692459 0.015191306 6579300
-0.042279929 0.01169845 0.011260623 6579300
-0.042099625 0.01169601 0.015606618 6579300
-0.042187002 0.011697192 0.0097297532 6579300
-0.042065151 0.011695543 0.0090139117 6579300
-0.042083055 0.011695785 0.013240991 6579300
-0.042623941 0.011693397 0.023479106 6579300
-0.042731501 0.011690471 0.017638568 6579300
-0.042870168 0.011686699 0.010193986 6579300
-0.042868875 0.011686735 0.0091865426 6579300
-0.042653143 0.011692602 0.020564776 6579300
-0.04278063 0.011689135 0.018427426 6579300
-0.042729113 0.011690537 0.026714766 6579300
-0.042299397 0.011698714 0.02571103 6579300
-0.041905351 0.011693381 0.020850383 6579300
-0.041960746 0.01169413 0.016630912 6579300
-0.042057231 0.011695436 0.022763848 6579300
-0.042129822 0.011696419 0.021778412 6579300
-0.041661937 0.01168073 0.018042725 6579300
-0.041720662 0.01168396 0.010803191 6579300
-0.041526075 0.011673256 0.012431821 6579300
-0.041732918 0.011684635 0.013951859 6579300
-0.041737448 0.011684883 0.027445305 6579300
-0.041761182 0.011686189 0.026604604 6579300
-0.041766159 0.011686463 0.023797879 6579300
-0.041862104 0.011691741 0.011817131 6579300
-0.041664246 0.011680856 0.024901628 6579300
-0.041228227 0.011645879 0.011420372 6579300
-0.041215934 0.011644669 0.0080717662 6579300
-0.041375507 0.011660379 0.014668782 6579300
-0.041351866 0.011658051 0.015947867 6579300
-0.04130213 0.011653155 0.01957823 6579300
-0.041209459 0.011644031 0.026249738 6579300
-0.041382387 0.011661056 0.020273054 6579300
-0.041039199 0.011620399 0.015308731 6579300
-0.041032124 0.011619357 0.0087914178 6579300
-0.041015085 0.011616847 0.0096995104 6579300
-0.040991496 0.011613375 0.025463257 6579300
-0.041047536 0.011621626 0.02292566 6579300
-0.041110151 0.011630846 0.024438618 6579300
-0.041131996 0.011634063 0.021593118 6579300
-0.041025098 0.011618322 0.027220909 6579300
-0.040900741 0.011598415 0.013455311 6579300
-0.040810473 0.011581336 0.02370565 6579300
-0.040933687 0.011604648 0.018476209 6579300
-0.04074591 0.01156712 0.017060401 6579300
-0.04074968 0.011567956 0.010932237 6579300
-0.040689323 0.011554587 0.02022448 6579300
-0.040807683 0.011580803 0.020996666 6579300
-0.040753927 0.011568896 0.022185761 6579300
-0.044151142 -0.018347183 0.014343484 6579300
-0.043963462 -0.018127566 0.010081969 6579300
-0.044112511 -0.018301982 0.018931482 6579300
-0.04423546 -0.018445855 0.021716464 6579300
-0.043903511 -0.018057412 0.015676912 6579300
-0.044086918 -0.018272033 0.01172372 6579300
-0.043958046 -0.018121229 0.0088377837 6579300
-0.044059642 -0.018240115 0.018215006 6579300
-0.044175643 -0.018375855 0.027012551 6579300
-0.043673094 -0.017787786 0.026774138 6579300
-0.043647118 -0.017757388 0.017367296 6579300
-0.043736055 -0.017861459 0.024434544 6579300
-0.04363884 -0.017747702 0.0094323186 6579300
-0.044029109 -0.018204385 0.022408769 6579300
-0.043794591 -0.017929958 0.013696143 6579300
-0.044055179 -0.01823489 0.021019729 6579300
-0.043841481 -0.017984826 0.027713411 6579300
-0.044021804 -0.018195838 0.026302485 6579300
-0.043678589 -0.017794216 0.019890649 6579300
-0.043752547 -0.017880758 0.023434103 6579300
-0.043397505 -0.017487599 0.010290866 6579300
-0.043039627 -0.01710334 0.019310173 6579300
-0.043458585 -0.017553182 0.0087516895 6579300
-0.043128897 -0.01719919 0.022727162 6579300
-0.043196145 -0.017271398 0.018202005 6579300
-0.043260153 -0.017340124 0.012265093 6579300
-0.04313352 -0.017204154 0.0092239883 6579300
-0.043278504 -0.017359825 0.01369289 6579300
-0.04358824 -0.017692396 0.018608797 6579300
-0.043197796 -0.017273169 0.026443699 6579300
-0.043376219 -0.017464744 0.021976827 6579300
-0.043497 -0.017594429 0.013005408 6579300
-0.043257821 -0.017337617 0.024897676 6579300
-0.0435565 -0.017658317 0.025517073 6579300
-0.043579139 -0.017682625 0.011647385 6579300
-0.043616723 -0.017722977 0.015140286 6579300
-0.043437794 -0.017530857 0.016673677 6579300
-0.042734839 -0.016800443 0.0096928915 6579300
-0.042722374 -0.016788185 0.017155629 6579300
-0.04269075 -0.016757084 0.012085757 6579300
-0.042625833 -0.016693242 0.013788385 6579300
-0.042860001 -0.016923532 0.010477304 6579300
-0.042975347 -0.017036965 0.0083783446 6579300
-0.042615332 -0.016682917 0.021788916 6579300
-0.042853404 -0.016917042 0.013110508 6579300
-0.042733751 -0.016799374 0.015642511 6579300
-0.042820558 -0.01688474 0.021122491 6579300
-0.042557418 -0.016625961 0.026133005 6579300
-0.042848267 -0.016911989 0.01635026 6579300
-0.042841967 -0.016905796 0.027005702 6579300
-0.04296419 -0.017025994 0.014328957 6579300
-0.042835854 -0.016899781 0.020044712 6579300
-0.042976327 -0.017037928 0.023980819 6579300
-0.042957664 -0.017019575 0.011319979 6579300
-0.042786866 -0.016851606 0.025273306 6579300
-0.042458307 -0.016530408 0.0088896696 6579300
-0.042344742 -0.016427746 0.010179695 6579300
-0.042244576 -0.016337199 0.015356816 6579300
-0.042300526 -0.016387777 0.014552369 6579300
-0.042184148 -0.016282575 0.017417122 6579300
-0.042121835 -0.016226245 0.012063983 6579300
-0.042279791 -0.016369035 0.010915117 6579300
-0.042460799 -0.016532661 0.024178544 6579300
-0.042185277 -0.016283596 0.027066564 6579300
-0.042327717 -0.016412357 0.023050917 6579300
-0.042303544 -0.016390506 0.016210828 6579300
-0.042320743 -0.016406052 0.020904813 6579300
-0.04218315 -0.016281674 0.022153988 6579300
-0.042294934 -0.016382724 0.020055324 6579300
-0.042258386 -0.016349683 0.018193679 6579300
-0.042428445 -0.016503414 0.018935313 6579300
-0.041672941 -0.015843771 0.018843224 6579300
-0.041694053 -0.015861349 0.016252285 6579300
-0.041828133 -0.015972991 0.011437981 6579300
-0.041667975 -0.015839634 0.014536579 6579300
-0.041761927 -0.015917864 0.0087605817 6579300
-0.041744813 -0.015903613 0.010074559 6579300
-0.041368812 -0.015602876 0.011995353 6579300
-0.041524734 -0.01572277 0.023782823 6579300
-0.041422732 -0.015644336 0.019557068 6579300
-0.041537166 -0.015732329 0.0218658 6579300
-0.041358963 -0.015595302 0.017667051 6579300
-0.041547537 -0.015740301 0.025137512 6579300
-0.041311249 -0.015558615 0.013688013 6579300
-0.041511938 -0.015712928 0.012938626 6579300
-0.041649111 -0.015823929 0.02689689 6579300
-0.041792061 -0.015942955 0.020434236 6579300
-0.041828912 -0.015973637 0.022684349 6579300
-0.041945033 -0.016070325 0.013344963 6579300
-0.0419407 -0.016066717 0.026184892 6579300
-0.041880913 -0.016016936 0.0243064 6579300
-0.041222911 -0.015490688 0.015525913 6579300
-0.041333515 -0.015575737 0.023109138 6579300
-0.041207939 -0.015479177 0.024445342 6579300
-0.041549891 -0.015742114 0.027850084 6579300
-0.041238923 -0.015503 0.025760869 6579300
-0.041212544 -0.015482716 0.010948895 6579300
-0.041246921 -0.01550915 0.016902663 6579300
-0.041191623 -0.01546663 0.018340152 6579300
-0.040987011 -0.015320655 0.014830269 6579300
-0.040858384 -0.015229837 0.0219658 6579300
-0.041133292 -0.01542394 0.0089544542 6579300
-0.040969424 -0.015308238 0.0082217408 6579300
-0.040784322 -0.015177543 0.017798817 6579300
-0.040998045 -0.015328447 0.010082174 6579300
-0.040579416 -0.01504381 0.01538374 6579300
-0.040548675 -0.01502396 0.013197392 6579300
-0.040690627 -0.015115621 0.013874141 6579300
-0.040739469 -0.01514716 0.019059708 6579300
-0.040641502 -0.015083902 0.012327822 6579300
-0.041041534 -0.015359152 0.016260808 6579300
-0.040813502 -0.015198146 0.027045326 6579300
-0.041142222 -0.015430244 0.020914597 6579300
-0.040486772 -0.014983988 0.02073339 6579300
-0.040670902 -0.015102885 0.027848596 6579300
-0.040545035 -0.015021609 0.019718492 6579300
-0.040590733 -0.015051118 0.024440669 6579300
-0.040281992 -0.014859919 0.011349075 6579300
-0.040315501 -0.01487956 0.0095809428 6579300
-0.040331483 -0.014888927 0.017147746 6579300
-0.040263932 -0.014849333 0.022926483 6579300
-0.040381867 -0.014918459 0.025403507 6579300
-0.040376935 -0.014915568 0.023604428 6579300
-0.039956354 -0.014681713 0.012411298 6579300
-0.039990205 -0.014699426 0.021635307 6579300
-0.040141273 -0.014778476 0.027474929 6579300
-0.040070992 -0.0147417 0.01897862 6579300
-0.040102445 -0.014758158 0.016542658 6579300
-0.039855909 -0.014633517 0.0205517 6579300
-0.039851356 -0.014631364 0.013282342 6579300
-0.039932437 -0.014669671 0.02605499 6579300
-0.039844137 -0.014627955 0.024992181 6579300
-0.039779574 -0.014599011 0.0091966093 6579300
-0.039804108 -0.014609684 0.0082155438 6579300
-0.039723363 -0.014574556 0.015639255 6579300
-0.039795194 -0.014605806 0.026784789 6579300
-0.039730124 -0.014577497 0.024255561 6579300
-0.039771449 -0.014595475 0.017897718 6579300
-0.046984058 0.0097633479 0.022618754 6579300
-0.046877269 0.01026574 0.020843985 6579300
-0.046986185 0.0097533381 0.025675176 6579300
-0.046806704 0.010597729 0.025056729 6579300
-0.047099117 0.0092220306 0.027902918 6579300
-0.047166485 0.0089050857 0.00881257 6579300
-0.047147725 0.0089933574 0.024664288 6579300
-0.047157243 0.0089485785 0.018429212 6579300
-0.047022134 0.0095842155 0.024092905 6579300
-0.047039427 0.0095028495 0.019997634 6579300
-0.046908554 0.010118566 0.019604428 6579300
-0.046772465 0.010758809 0.026519874 6579300
-0.046984427 0.0097615998 0.024771156 6579300
-0.046854869 0.010371131 0.023670351 6579300
-0.04697996 0.009782616 0.017588511 6579300
-0.04706518 0.0093816975 0.013932954 6579300
-0.047031667 0.0095393648 0.015995549 6579300
-0.047087792 0.0092753172 0.014829966 6579300
-0.046999436 0.0096909953 0.021516247 6579300
-0.046952628 0.0099112187 0.027737405 6579300
-0.047110092 0.0091703972 0.023459058 6579300
-0.046957683 0.0098874299 0.018723156 6579300
-0.04706867 0.0093652718 0.026809463 6579300
-0.047156684 0.0089512095 0.020422205 6579300
-0.046715561 0.011026524 0.011994677 6579300
-0.046876654 0.010268632 0.011958017 6579300
-0.047007006 0.0096553778 0.0092658047 6579300
-0.047014311 0.0096210157 0.012386686 6579300
-0.04685377 0.010376301 0.017224167 6579300
-0.046961691 0.0098685613 0.013327866 6579300
-0.046727013 0.010972639 0.019121146 6579300
-0.046839617 0.010442882 0.0093690092 6579300
-0.046730421 0.0109566 0.0211695 6579300
-0.046791073 0.010671268 0.008738555 6579300
-0.046715148 0.011028461 0.020476088 6579300
-0.046986662 0.0097510871 0.011455247 6579300
-0.04670985 0.011053384 0.017607464 6579300
-0.046815634 0.010555715 0.016223315 6579300
-0.047109406 0.0091736205 0.0104777 6579300
-0.046868447 0.010307241 0.012697066 6579300
-0.046803452 0.010613021 0.013372558 6579300
-0.046842556 0.010429051 0.014524132 6579300
-0.046751112 0.010859264 0.018380841 6579300
-0.046811271 0.010576238 0.015431686 6579300
-0.047026992 0.0095613636 0.0084335506 6579300
-0.046873145 0.010285148 0.010223192 6579300
-0.046825327 0.010510107 0.022447035 6579300
-0.039562877 -0.014514019 0.011344256 6579300
-0.039165724 -0.014368321 0.023210138 6579300
-0.039329808 -0.014428517 0.020118739 6579300
-0.039341092 -0.014432657 0.022115838 6579300
-0.039457642 -0.014475413 0.018580083 6579300
-0.039698269 -0.014563688 0.014260467 6579300
-0.039603394 -0.014528882 0.010336235 6579300
-0.039337803 -0.01443145 0.027415229 6579300
-0.039451189 -0.014473045 0.019366929 6579300
-0.03937557 -0.014445304 0.014975646 6579300
-0.039180398 -0.014373704 0.021088842 6579300
-0.039015383 -0.014313168 0.025293214 6579300
-0.039546844 -0.014508137 0.016980521 6579300
-0.03913616 -0.014357475 0.013598208 6579300
-0.038828138 -0.014244475 0.014372135 6579300
-0.038858294 -0.01425554 0.016974272 6579300
-0.039152458 -0.014363455 0.0082168942 6579300
-0.038917881 -0.0142774 0.012265229 6579300
-0.038765457 -0.014221481 0.026272666 6579300
-0.04187724 0.0059955823 0.026046071 6579300
-0.041902028 0.006000849 0.012438587 6579300
-0.042228341 0.0060784533 0.0085317297 6579300
-0.042078014 0.0060390919 0.024529489 6579300
-0.042174801 0.0060644341 0.022005269 6579300
-0.042066209 0.0060360008 0.010965247 6579300
-0.042068142 0.006036507 0.01613266 6579300
-0.042136882 0.0060545057 0.021234306 6579300
-0.042376958 0.0061225118 0.017689908 6579300
-0.042597897 0.0061952169 0.0099276034 6579300
-0.042478595 0.0061543891 0.011751611 6579300
-0.042539585 0.0061752615 0.014685332 6579300
-0.042265262 0.0060883611 0.013348226 6579300
-0.042270649 0.0060900087 0.0092814323 6579300
-0.042264469 0.0060881181 0.027283141 6579300
-0.042265877 0.0060885493 0.017016793 6579300
-0.042761732 0.00625487 0.010590239 6579300
-0.042678483 0.006223673 0.025877412 6579300
-0.042710491 0.0062356675 0.020609155 6579300
-0.042726021 0.0062414873 0.023256585 6579300
-0.042865828 0.0062938794 0.018589865 6579300
-0.042905156 0.006308618 0.016698163 6579300
-0.042817704 0.0062758462 0.022290178 6579300
-0.042960871 0.0063311602 0.01133471 6579300
-0.042975303 0.0063370299 0.012438728 6579300
-0.043071792 0.0063762674 0.017434783 6579300
-0.043125752 0.0063982098 0.013454597 6579300
-0.043115728 0.0063941339 0.0156307 6579300
-0.04309063 0.006383928 0.023986561 6579300
-0.042930663 0.006318877 0.027251717 6579300
-0.043535113 0.006577305 0.025391567 6579300
-0.043512207 0.006567141 0.016911069 6579300
-0.043267529 0.0064585623 0.0086894613 6579300
-0.043534204 0.0065769027 0.022296377 6579300
-0.043397587 0.0065162773 0.020350451 6579300
-0.043281108 0.0064645875 0.021338256 6579300
-0.043714434 0.0066625676 0.011625878 6579300
-0.043796118 0.0067020571 0.0090203602 6579300
-0.04372289 0.0066666557 0.010409047 6579300
-0.043691114 0.0066512944 0.012319823 6579300
-0.043895163 0.0067499373 0.019415578 6579300
-0.04385959 0.0067327404 0.014383187 6579300
-0.043895353 0.0067500295 0.016203934 6579300
-0.043648437 0.0066306628 0.024298595 6579300
-0.043636728 0.0066250013 0.015087232 6579300
-0.043863151 0.0067344629 0.026418151 6579300
-0.044121981 0.0068669985 0.012847869 6579300
-0.044090331 0.0068504284 0.0096924184 6579300
-0.04434479 0.0069836406 0.014939461 6579300
-0.043994077 0.0068000387 0.0082514649 6579300
-0.044347953 0.0069852965 0.024980163 6579300
-0.044345342 0.0069839302 0.01036671 6579300
-0.044297423 0.0069588441 0.011203374 6579300
-0.044238865 0.0069281873 0.023619188 6579300
