# .PCD v0.7 - Point Cloud Data file format
VERSION 0.7
FIELDS x y z rgb
SIZE 4 4 4 4
TYPE F F F U
COUNT 1 1 1 1
WIDTH 1044
HEIGHT 1
VIEWPOINT 0 0 0 1 0 0 0
POINTS 1044
DATA ascii
0.008310819 -0.033565734 0.020095592 6579300
0.0083735455 -0.020543193 0.019820774 6579300
0.0083252089 -0.060451362 0.020032547 6579300
0.0083275167 -0.06277667 0.020022437 6579300
0.0083382018 -0.04262479 0.019975623 6579300
0.0083317207 -0.03642476 0.020004015 6579300
0.0083142798 -0.02287616 0.020080429 6579300
0.0083264681 -0.053094093 0.020027032 6579300
0.0083069755 -0.054406706 0.020112433 6579300
0.0083199888 -0.058392644 0.020055417 6579300
0.0083395522 -0.045506325 0.019969705 6579300
0.008389933 -0.0066304007 0.019748975 6579300
0.0083132535 -0.029972909 0.020084927 6579300
0.0083589396 -0.035581779 0.019884763 6579300
0.0083073024 -0.017341722 0.020111 6579300
0.0083136978 -0.010614515 0.020082982 6579300
0.008330442 -0.01874142 0.02000962 6579300
0.0083474936 -0.011302409 0.019934915 6579300
0.0083156377 -0.025809519 0.020074479 6579300
0.0083359759 -0.00069142977 0.019985372 6579300
0.0083336839 -0.01952954 0.019995417 6579300
0.0083045457 -0.024260296 0.020121565 6579300
0.0082942126 -0.016527321 0.020158291 6579300
0.0082568182 -0.012510189 0.0202912 6579300
0.0082841869 -0.043266021 0.020193923 6579300
0.0082892012 -0.059063058 0.020176105 6579300
0.0082777757 -0.051382519 0.020216711 6579300
0.0082932198 -0.0054492522 0.020161821 6579300
0.0082883006 -0.044246797 0.020179303 6579300
0.0082747452 -0.038363468 0.020227483 6579300
0.008258366 -0.032393746 0.020285696 6579300
0.0082835415 -0.056909785 0.02019622 6579300
0.0082886154 -0.050572373 0.020178184 6579300
0.0083035585 -0.003035709 0.020125074 6579300
0.0082727922 -0.024884839 0.020234426 6579300
0.0083048055 -0.071957812 0.020120643 6579300
0.0082258899 -0.023622738 0.020401124 6579300
0.0082851425 -0.014831254 0.02019053 6579300
0.0082541639 -0.0015807977 0.020300634 6579300
0.0082644569 -0.0044881441 0.020264048 6579300
0.0082705766 -0.053714164 0.0202423 6579300
0.0082397582 -0.0096581727 0.020351835 6579300
0.0082507189 -8.0502432e-06 0.020312877 6579300
0.0083061457 -0.037372246 0.020115877 6579300
0.008400742 -0.0643107 0.019701617 6579300
0.0083231656 -0.069233656 0.020041499 6579300
0.0083690239 -0.029062176 0.019840581 6579300
0.0083744628 -0.030756209 0.019816756 6579300
0.0083365589 -0.080088615 0.01998282 6579300
0.0083917128 -0.027729308 0.019741178 6579300
0.0083659803 -0.072849602 0.019853916 6579300
0.0083992919 -0.070369549 0.019707972 6579300
0.0083878944 -0.051816076 0.019757908 6579300
0.00833207 -0.070955634 0.020002488 6579300
0.0083950795 -0.022279846 0.019726427 6579300
0.0083516464 -0.063708022 0.019916717 6579300
0.0084007159 -0.018187918 0.01970173 6579300
0.0083841495 -0.041446112 0.019774312 6579300
0.008369551 -0.047798544 0.019838272 6579300
0.0083861602 -0.065792181 0.019765506 6579300
0.0083930595 -0.039988462 0.019735279 6579300
0.0083754724 -0.055895928 0.019812329 6579300
0.0083458265 -0.061253954 0.019942215 6579300
0.0083942544 -0.065018326 0.019730043 6579300
0.0083978996 -0.040716462 0.019714072 6579300
0.0083202729 -0.07807067 0.020054175 6579300
0.008366989 -0.057529066 0.0198495 6579300
0.0083869491 -0.038882647 0.01976205 6579300
0.0083767502 -0.049764637 0.01980673 6579300
0.0083663529 -0.076176398 0.019852286 6579300
0.0082183313 -0.083393931 0.020427991 6579300
0.0082565034 -0.065226629 0.020292319 6579300
0.0082600806 -0.067677923 0.020279603 6579300
0.0082252407 -0.030689133 0.020403432 6579300
0.0082533099 -0.077371098 0.02030367 6579300
0.0081932424 -0.0023674148 0.020517165 6579300
0.0082435282 -0.073485568 0.020338435 6579300
0.0081960298 -0.070531212 0.020507257 6579300
0.0082778512 -0.069849804 0.020216443 6579300
0.008271181 -0.082493961 0.02024015 6579300
0.0082916236 -0.080727488 0.020167494 6579300
0.0082202693 -0.079540864 0.020421103 6579300
0.0082238549 -0.05557967 0.020408358 6579300
0.0082020573 -0.014078315 0.020485831 6579300
0.0082131997 -0.020067448 0.020446228 6579300
0.0082767177 -0.081523053 0.020220472 6579300
0.008200977 -0.068365797 0.020489674 6579300
0.0082007311 -0.066120543 0.020490544 6579300
0.0082044387 -0.022318022 0.020477369 6579300
0.0082280561 -0.046547655 0.020393427 6579300
0.0082000848 -0.064110845 0.020492844 6579300
0.0081922514 -0.0066961348 0.020520685 6579300
0.0081944987 -0.078836121 0.020512698 6579300
0.0081147114 -0.045397308 0.020752413 6579300
0.0080822352 -0.029800061 0.020849075 6579300
0.0080607487 -0.059751574 0.020913025 6579300
0.0081196334 -0.01745832 0.020737763 6579300
0.0080987392 -0.022865186 0.020799952 6579300
0.0081505934 -0.018970618 0.020645615 6579300
0.0081534199 -0.015571554 0.020637201 6579300
0.0081564346 -0.0079666264 0.020628231 6579300
0.0081118923 -0.010151691 0.020760803 6579300
0.0081271613 -0.03901615 0.020715356 6579300
0.0081126345 -0.021604065 0.020758593 6579300
0.008073017 -0.056621056 0.02087651 6579300
0.00807303 -0.043140754 0.020876471 6579300
0.0081152618 -0.0032506534 0.020750774 6579300
0.0080741672 -0.032142386 0.020873085 6579300
0.0081127407 -0.027715454 0.020758279 6579300
0.0080572236 -0.024441542 0.020923516 6579300
0.0081272069 -0.0039710854 0.020715222 6579300
0.0081330594 -0.026013931 0.020697802 6579300
0.0080796992 -0.051152531 0.020856621 6579300
0.0080717411 -0.03403924 0.020880308 6579300
0.0080926437 -0.0048051449 0.020818094 6579300
0.0081424452 -0.0011102 0.020669864 6579300
0.00806899 -0.033024617 0.020888496 6579300
0.0081355507 -0.018253013 0.020690387 6579300
0.0081434911 -0.013091238 0.020666752 6579300
0.0079295263 -0.011162244 0.021250047 6579300
0.0079843597 -0.025268804 0.021110335 6579300
0.0079872012 -0.016254462 0.021103093 6579300
0.0079698889 -0.035200953 0.021147206 6579300
0.0080269417 -0.046149623 0.021001836 6579300
0.0079876631 -0.00055270153 0.021101918 6579300
0.007927605 -0.01503301 0.021254944 6579300
0.0079741217 -0.02379363 0.021136422 6579300
0.0079892613 -0.0065206639 0.021097844 6579300
0.0080488343 -0.07338196 0.020946056 6579300
0.0080353925 -0.012449089 0.020980304 6579300
0.0079570878 -0.0026501536 0.021179821 6579300
0.008033121 -0.059059966 0.020986093 6579300
0.0079939635 -0.016895778 0.021085866 6579300
0.0080453036 -0.0058208047 0.02095505 6579300
0.0079164384 -0.009372443 0.021283394 6579300
0.007990838 -0.049468409 0.021093829 6579300
0.0079446314 -0.020909894 0.021211561 6579300
0.0079532648 -0.013865187 0.021189561 6579300
0.0079860836 -0.020281397 0.021105943 6579300
0.0080181854 -0.019608617 0.021024147 6579300
0.0079243425 -0.004329138 0.021263255 6579300
0.008034585 -0.0087976921 0.020982362 6579300
0.0079693617 -0.036368888 0.021148548 6579300
0.0080496771 -0.007252642 0.020943908 6579300
0.0080351196 -0.047717586 0.020981001 6579300
0.008054127 -0.080079146 0.020932572 6579300
0.008190034 -0.054930359 0.020528225 6579300
0.0081405276 -0.040954795 0.020675573 6579300
0.0081648193 -0.048912335 0.020603273 6579300
0.0081795286 -0.051924814 0.020559493 6579300
0.0081566041 -0.076181956 0.020627726 6579300
0.0081777442 -0.061904155 0.020564804 6579300
0.008154708 -0.026806476 0.020633368 6579300
0.0080933562 -0.063416459 0.020815974 6579300
0.0081324317 -0.062765338 0.020699671 6579300
0.0081112534 -0.060543194 0.020762704 6579300
0.0081891613 -0.039716143 0.020530822 6579300
0.0081407512 -0.042192571 0.020674909 6579300
0.0081515219 -0.075256869 0.020642852 6579300
0.008127626 -0.058169004 0.020713974 6579300
0.0081425318 -0.077967517 0.020669607 6579300
0.0081800129 -0.029052252 0.020558052 6579300
0.0081728268 -0.011408526 0.020579439 6579300
0.008135736 -0.074365713 0.020689836 6579300
0.0081826728 -0.037810586 0.020550134 6579300
0.0081821028 -0.066764563 0.020551832 6579300
0.0081825843 -0.050056994 0.0205504 6579300
0.0081141097 -0.082088865 0.020754203 6579300
0.0081561031 -0.028311394 0.020629214 6579300
0.0079026474 -0.031702593 0.021318534 6579300
0.008005864 -0.070231795 0.021055542 6579300
0.0080393869 -0.082964815 0.020970127 6579300
0.007906436 -0.062517017 0.02130888 6579300
0.0079522971 -0.064857468 0.021192029 6579300
0.0079594925 -0.07474298 0.021173695 6579300
0.0079356628 -0.044477839 0.021234412 6579300
0.0080358172 -0.083638445 0.020979224 6579300
0.0080112861 -0.071623899 0.021041729 6579300
0.0079547381 -0.052505516 0.02118581 6579300
0.0080258492 -0.079348072 0.021004621 6579300
0.0079161674 -0.013179246 0.021284087 6579300
0.0079011582 -0.064142719 0.021322327 6579300
0.0079423804 -0.061856687 0.021217296 6579300
0.00791426 -0.02927088 0.021288944 6579300
0.0079041831 -0.067255534 0.021314621 6579300
0.00800025 -0.081330478 0.021069847 6579300
0.0079768468 -0.054700714 0.021129478 6579300
0.0079493485 -0.057611737 0.021199541 6579300
0.0079629878 -0.066073976 0.021164788 6579300
0.0079385992 -0.048743688 0.02122693 6579300
0.0079374211 -0.05183655 0.021229932 6579300
0.0079977782 -0.069047563 0.021076143 6579300
0.0079612443 -0.076488659 0.02116923 6579300
0.0077427323 -0.024572898 0.021674359 6579300
0.0077617043 -0.0032902278 0.021632314 6579300
0.0077318745 -0.044077024 0.021698423 6579300
0.0077571198 -0.026285097 0.021642474 6579300
0.0077361544 -0.04159655 0.021688938 6579300
0.0078096078 -0.014447468 0.021526149 6579300
0.0077720513 -0.046208356 0.021609383 6579300
0.007830265 -0.017444573 0.02148037 6579300
0.0077549811 -0.019723112 0.021647213 6579300
0.007788904 -0.04332241 0.021572033 6579300
0.0077839 -0.012049055 0.021583123 6579300
0.0078286594 -0.0077430862 0.021483928 6579300
0.0077434047 -0.071751617 0.021672869 6579300
0.0077845622 -0.0087971212 0.021581655 6579300
0.0077329553 -0.044923894 0.021696027 6579300
0.0077279215 -0.04830309 0.021707185 6579300
0.007744167 -0.070563801 0.02167118 6579300
0.0077803736 -0.042328663 0.021590939 6579300
0.0077489037 -0.068635233 0.021660684 6579300
0.0077663735 -0.0070605837 0.021621967 6579300
0.0077447384 -0.033250671 0.021669913 6579300
0.007735271 -0.065305218 0.021690896 6579300
0.0077264267 -0.018719252 0.021710496 6579300
0.0077609117 -0.027742818 0.02163407 6579300
0.007731453 -0.069577076 0.021699358 6579300
0.0078953337 -0.072362103 0.021336162 6579300
0.0078975642 -0.039435379 0.021331219 6579300
0.0078343395 -0.051198162 0.021471338 6579300
0.0078802835 -0.082044207 0.021369517 6579300
0.0077551249 -0.079202235 0.021646895 6579300
0.0078389393 -0.077608816 0.021461146 6579300
0.0078636706 -0.068083361 0.021406334 6579300
0.0078857336 -0.037395295 0.021357439 6579300
0.0078361193 -0.029879555 0.021467395 6579300
0.0078722117 -0.06037451 0.021387406 6579300
0.0078675877 -0.053765874 0.021397652 6579300
0.0078965928 -0.015655151 0.021333372 6579300
0.0078169899 -0.058604542 0.021509789 6579300
0.0078517711 -0.022585128 0.021432707 6579300
0.0078150528 -0.055820301 0.021514082 6579300
0.0077949222 -0.059571315 0.021558696 6579300
0.0078944769 -0.0052951556 0.02133806 6579300
0.0078485887 -0.030693391 0.021439761 6579300
0.0078533832 -0.073926397 0.021429133 6579300
0.0078640617 -0.045593664 0.021405468 6579300
0.0078348303 -0.080613382 0.021470251 6579300
0.0078293625 -0.075453363 0.021482369 6579300
0.0078359107 -0.032562278 0.021467857 6579300
0.0078892177 -0.034538168 0.021349717 6579300
0.0075303777 -0.034039613 0.022093929 6579300
0.0075606937 -0.04287558 0.022034794 6579300
0.0076386407 -0.011020515 0.02188275 6579300
0.0075642271 -0.059145983 0.022027902 6579300
0.0075732553 -0.050922919 0.022010291 6579300
0.0075333621 -0.066740043 0.022088107 6579300
0.0075374376 -0.025081344 0.022080157 6579300
0.0075399331 -0.030878035 0.02207529 6579300
0.0076457625 -0.014982156 0.021868858 6579300
0.0076193986 -0.016658193 0.021920284 6579300
0.0075333859 -0.059964195 0.022088062 6579300
0.0076271803 -0.035878815 0.021905106 6579300
0.0075779487 -0.061726209 0.022001136 6579300
0.007549325 -0.056332581 0.022056971 6579300
0.0075859046 -0.039696522 0.021985618 6579300
0.0076644933 -0.0061042886 0.021832323 6579300
0.0075633801 -0.0092476429 0.022029554 6579300
0.0076623308 -0.01030679 0.021836542 6579300
0.0075720996 -0.022940982 0.022012547 6579300
0.0075697298 -0.005023838 0.02201717 6579300
0.0076261666 -0.038588636 0.021907084 6579300
0.0075530177 -0.068047337 0.022049768 6579300
0.0075859055 -0.013223439 0.021985617 6579300
0.0075602802 -0.037230458 0.022035601 6579300
0.0075400583 -0.0022255809 0.022075046 6579300
0.0075374059 -0.0075596701 0.02208022 6579300
0.0074117826 -0.027815975 0.022299942 6579300
0.0074366722 -0.0035339389 0.022256833 6579300
0.0073966412 -0.018692432 0.022326168 6579300
0.0074322331 -0.0028600751 0.022264522 6579300
0.0074083772 -0.029373692 0.022305841 6579300
0.0074698944 -0.052214496 0.022199292 6579300
0.0074505331 -0.035108924 0.022232825 6579300
0.0075204447 -0.050140105 0.022111736 6579300
0.0073850239 -0.012532596 0.02234629 6579300
0.0074908664 -0.021519354 0.022162968 6579300
0.0074879383 -0.061098944 0.02216804 6579300
0.0074776579 -0.015987948 0.022185845 6579300
0.0074965674 -0.022206476 0.022153093 6579300
0.0075099398 -0.0043490492 0.022129932 6579300
0.007464157 -0.057582926 0.022209229 6579300
0.0073856814 -0.0064015309 0.02234515 6579300
0.0074984366 -0.047766481 0.022149855 6579300
0.0075005055 -0.020319188 0.022146273 6579300
0.0074807834 -0.054780483 0.022180432 6579300
0.007511117 -0.053705227 0.022127893 6579300
0.0074884193 -0.017347964 0.022167206 6579300
0.0074691656 -0.045579597 0.022200555 6579300
0.0077155065 -0.028523494 0.021732816 6579300
0.0076965108 -0.076043583 0.02176987 6579300
0.0076483716 -0.078615978 0.02186377 6579300
0.0076894732 -0.026907178 0.021783598 6579300
0.0076770475 -0.049443681 0.021807835 6579300
0.007697254 -0.08355698 0.021768421 6579300
0.0076045203 -0.072370566 0.021949306 6579300
0.0076252311 -0.047066037 0.021908907 6579300
0.0077220746 -0.001056189 0.021720005 6579300
0.0076746079 -0.052671704 0.021812594 6579300
0.0076318472 -0.07994099 0.021896003 6579300
0.0076802173 -0.064479709 0.021801652 6579300
0.0076622344 -0.066122986 0.02183673 6579300
0.0076076444 -0.073700383 0.021943212 6579300
0.0076465276 -0.03796022 0.021867367 6579300
0.0076924209 -0.017994303 0.021777848 6579300
0.0076377154 -0.057017475 0.021884557 6579300
0.0075990111 -0.062771268 0.021960052 6579300
0.0075896126 -0.08112108 0.021978386 6579300
0.0076695653 -0.025690274 0.02182243 6579300
0.007663928 -0.082912952 0.021833425 6579300
0.0076566837 -0.040785477 0.021847557 6579300
0.0076976516 -0.036525611 0.021767644 6579300
0.0073602819 -0.028426599 0.022389144 6579300
0.0074309111 -0.063825287 0.022266813 6579300
0.0074215028 -0.048536692 0.022283107 6579300
0.007366145 -0.052956268 0.022378989 6579300
0.0073152911 -0.019560335 0.022467069 6579300
0.007359168 -0.024085434 0.022391073 6579300
0.0073596882 -0.074776061 0.022390172 6579300
0.0073235976 -0.025922187 0.022452682 6579300
0.0074074054 -0.068936892 0.022307524 6579300
0.0073537924 -0.020917216 0.022400383 6579300
0.0073843123 -0.044913165 0.022347523 6579300
0.0074181003 -0.058301289 0.022289 6579300
0.0073186313 -0.01453988 0.022461284 6579300
0.0073343958 -0.0515051 0.022433979 6579300
0.0075042625 -0.077415772 0.022139765 6579300
0.0073649255 -0.049184062 0.022381101 6579300
0.0074704532 -0.082319684 0.022198325 6579300
0.0073817349 -0.073036455 0.022351986 6579300
0.0073794397 -0.083288454 0.022355963 6579300
0.0073705055 -0.043723825 0.022371436 6579300
0.0074276258 -0.064942181 0.022272501 6579300
0.0073601939 -0.038204331 0.022389296 6579300
0.0073480625 -0.075730421 0.022410307 6579300
0.0073057692 -0.035814706 0.022482064 6579300
0.0072236252 -0.062821992 0.022609249 6579300
0.0072493432 -0.065854818 0.022569429 6579300
0.0072744437 -0.070033863 0.022530565 6579300
0.007250404 -0.03261533 0.022567786 6579300
0.0073008244 -0.083981134 0.022489719 6579300
0.0072723981 -0.074086897 0.022533733 6579300
0.0073059248 -0.036575716 0.022481821 6579300
0.0072730379 -0.040978644 0.022532742 6579300
0.0072919 -0.029965756 0.022503538 6579300
0.0071538375 -0.079104237 0.022717305 6579300
0.0072990917 -0.070995815 0.022492403 6579300
0.0072671985 -0.078381054 0.022541784 6579300
0.0073091593 -0.013697 0.022476815 6579300
0.0072508501 -0.081456967 0.022567097 6579300
0.0071831751 -0.082803138 0.02267188 6579300
0.0072890706 -0.076558553 0.022507919 6579300
0.0071963952 -0.056650296 0.02265141 6579300
0.0072140144 -0.039769996 0.022624129 6579300
0.0073108505 -0.080755427 0.022474196 6579300
0.0073065553 -0.0096699884 0.022480845 6579300
0.0071803238 -0.072113656 0.022676295 6579300
0.0072266092 -0.067385063 0.022604629 6579300
0.0072487118 -0.05074859 0.022570407 6579300
0.0072508682 -0.0050977981 0.022567067 6579300
0.0070883976 -0.041566435 0.022818627 6579300
0.0072368751 -0.010392021 0.022588734 6579300
0.0071173967 -0.068503864 0.022773726 6579300
0.0071542771 -0.038773753 0.022716623 6579300
0.0071750078 -0.033612724 0.022684526 6579300
0.0071437475 -0.055812914 0.022732927 6579300
0.0071482905 -0.022026319 0.022725893 6579300
0.0072163399 -0.031621397 0.022620529 6579300
0.0070876181 -0.07516548 0.022819834 6579300
0.0071679149 -0.015670711 0.022695508 6579300
0.0071015204 -0.017518824 0.022798309 6579300
0.0071723755 -0.03428315 0.022688601 6579300
0.0071448353 -0.0017181633 0.022731243 6579300
0.0071926722 -0.024944648 0.022657175 6579300
0.0072254515 -0.0058025941 0.022606421 6579300
0.0072563929 -0.0084036039 0.022558514 6579300
0.0071207583 -0.011145649 0.022768522 6579300
0.0071583772 -0.026859919 0.022710275 6579300
0.007124105 -0.00022352021 0.02276334 6579300
0.0072108018 -0.023462867 0.022629105 6579300
0.0071285786 -0.003814152 0.022756413 6579300
0.0069355285 -0.072572038 0.023032255 6579300
0.007057948 -0.06067596 0.02286198 6579300
0.0069887727 -0.046476681 0.022958197 6579300
0.0070618903 -0.07713031 0.022856496 6579300
0.0070620817 -0.064422652 0.02285623 6579300
0.0069292695 -0.080182448 0.023040961 6579300
0.0070354724 -0.058969215 0.022893241 6579300
0.0069148331 -0.071485549 0.023061041 6579300
0.0070262835 -0.037367176 0.022906022 6579300
0.0069890553 -0.043275222 0.022957804 6579300
0.0069335438 -0.083411388 0.023035016 6579300
0.0069574257 -0.047845919 0.023001797 6579300
0.0069235926 -0.073434897 0.023048857 6579300
0.0070676389 -0.069270544 0.0228485 6579300
0.0068931389 -0.081783362 0.023091216 6579300
0.0068863169 -0.066250965 0.023100704 6579300
0.0068855435 -0.069990039 0.023101781 6579300
0.0070573362 -0.015073039 0.022862831 6579300
0.0070136962 -0.044550836 0.022923531 6579300
0.0070059551 -0.049319495 0.022934297 6579300
0.0070575317 -0.020183014 0.022862557 6579300
0.0070735705 -0.047137547 0.02284025 6579300
0.0069032367 -0.081085831 0.023077169 6579300
0.0070254863 -0.059792619 0.02290713 6579300
0.0069783786 -0.048634134 0.022972655 6579300
0.0069992901 -0.053032219 0.022943567 6579300
0.0069751185 -0.058245745 0.022977188 6579300
0.0069223936 -0.074349143 0.023050524 6579300
0.0069999886 -0.077973269 0.022942595 6579300
0.0069011305 -0.076311268 0.023080099 6579300
0.007075334 -0.018354841 0.022837797 6579300
0.0070641479 -0.051900532 0.022853356 6579300
0.0069132457 -0.038277049 0.023063248 6579300
0.0068930248 -0.021355933 0.023091374 6579300
0.0068688611 -0.050663076 0.023124984 6579300
0.0070345346 -0.0070922486 0.022894546 6579300
0.0069893291 -0.022683101 0.022957422 6579300
0.0068922015 -0.061726131 0.023092519 6579300
0.0069288714 -0.016319882 0.023041515 6579300
0.0068326136 -0.070840552 0.023175402 6579300
0.0068348087 -0.039417643 0.023172349 6579300
0.006894019 -0.054778893 0.023089992 6579300
0.0068671321 -0.032400452 0.023127388 6579300
0.0070259445 -0.0090251369 0.022906493 6579300
0.006908197 -0.0045517054 0.023070272 6579300
0.0069182725 -0.0077023874 0.023056256 6579300
0.0068480386 -0.024806989 0.023153946 6579300
0.0070637409 -0.00096254703 0.022853922 6579300
0.0069520101 -0.03043195 0.02300933 6579300
0.0069805458 -0.014108935 0.022969639 6579300
0.0069498308 -0.042483252 0.023012361 6579300
0.0069489977 -0.025736181 0.023013521 6579300
0.0068915202 -0.02895481 0.023093468 6579300
0.0068626902 -0.040446538 0.023133567 6579300
0.0069233994 -0.051318888 0.023049125 6579300
0.0066989055 -0.060215846 0.023343071 6579300
0.0067189797 -0.041880891 0.0233179 6579300
0.0068020709 -0.057513475 0.023213707 6579300
0.006660989 -0.068806656 0.023390617 6579300
0.0066638133 -0.064520791 0.023387076 6579300
0.0068198144 -0.027607253 0.023191458 6579300
0.0067815636 -0.079338171 0.023239423 6579300
0.0067742625 -0.03444846 0.023248577 6579300
0.0068282066 -0.013433246 0.023180934 6579300
0.0068143583 -0.078615889 0.023198299 6579300
0.0067689 -0.044094786 0.023255302 6579300
0.0067054322 -0.061085269 0.023334887 6579300
0.0067255762 -0.055935107 0.023309628 6579300
0.0065872245 -0.082280651 0.023483114 6579300
0.0067923823 -0.031275686 0.023225857 6579300
0.0068258443 -0.065242879 0.023183897 6579300
0.0067983516 -0.053772807 0.023218371 6579300
0.0068154982 -0.063693278 0.02319687 6579300
0.006621785 -0.082998939 0.023439778 6579300
0.0067715393 -0.036663998 0.023251992 6579300
0.006774182 -0.067501359 0.023248678 6579300
0.0068092514 -0.045678034 0.023204703 6579300
0.0066556907 -0.077200525 0.023397261 6579300
0.0065772305 -0.032958277 0.023495646 6579300
0.0067940927 -0.0020843386 0.023223711 6579300
0.0066134911 -0.035314299 0.023450177 6579300
0.0067477277 -0.023791736 0.02328185 6579300
0.0065899696 -0.062277291 0.023479672 6579300
0.0067302496 -0.019216726 0.023303768 6579300
0.0066256006 -0.058643483 0.023434993 6579300
0.0067213695 -0.026986737 0.023314903 6579300
0.0066439691 -0.0086687766 0.023411959 6579300
0.0065961522 -0.052860603 0.02347192 6579300
0.0067356657 -0.012807829 0.023296976 6579300
0.0066011818 -0.011103784 0.023465613 6579300
0.0065665268 -0.011960587 0.023509068 6579300
0.0065894667 -0.015640901 0.023480304 6579300
0.0065824324 -0.007349655 0.023489123 6579300
0.0067112907 -0.017263554 0.023327542 6579300
0.0066930843 -0.0058710407 0.023350371 6579300
0.006580431 -0.059408244 0.023491634 6579300
0.0067349942 -0.0039795293 0.023297818 6579300
0.006665139 -0.029578466 0.023385413 6579300
0.0067579434 -0.01802556 0.023269041 6579300
0.0065810131 -0.073154867 0.023490904 6579300
0.0067419936 -0.0028588984 0.023289042 6579300
0.0067063412 -0.019893864 0.023333747 6579300
0.0066766138 -0.00092476397 0.023371024 6579300
0.0066235526 -0.0065534711 0.023437561 6579300
0.0066524153 -0.00028294124 0.023401368 6579300
0.0065942938 -0.066776037 0.02347425 6579300
0.0064200377 -0.056534611 0.023675112 6579300
0.0065645599 -0.033804227 0.02351135 6579300
0.0065386361 -0.047211252 0.023540724 6579300
0.0065338663 -0.043128144 0.023546129 6579300
0.0065256264 -0.069586076 0.023555467 6579300
0.0064161597 -0.052285653 0.023679506 6579300
0.0065278714 -0.036072176 0.023552923 6579300
0.0064390078 -0.063243151 0.023653615 6579300
0.0064276 -0.061543033 0.023666542 6579300
0.0065361345 -0.031873129 0.023543559 6579300
0.0064818119 -0.0702824 0.023605114 6579300
0.0065191565 -0.068044916 0.023562798 6579300
0.0065262285 -0.04848716 0.023554783 6579300
0.0065252297 -0.046444859 0.023555916 6579300
0.0064629251 -0.079701252 0.023626514 6579300
0.0063506672 -0.078043014 0.023753718 6579300
0.0063066646 -0.081105657 0.023803579 6579300
0.006563352 -0.026082104 0.023512717 6579300
0.0065172683 -0.075888827 0.023564937 6579300
0.0064855139 -0.074178264 0.023600919 6579300
0.006288128 -0.0059698746 0.023824582 6579300
0.0064731194 -0.0080244951 0.023614964 6579300
0.0065209931 -0.0099124163 0.023560716 6579300
0.0063691819 -0.040283106 0.023732739 6579300
0.0064040991 -0.025410043 0.023693172 6579300
0.006391916 -0.005269649 0.023706976 6579300
0.0064115389 -0.037756812 0.023684742 6579300
0.0063168877 -0.039576158 0.023791993 6579300
0.0064945016 -0.020502219 0.023590734 6579300
0.0063692443 -0.024684438 0.023732666 6579300
0.0063217804 -0.034435991 0.02378645 6579300
0.0062923771 -0.057906915 0.023819767 6579300
0.0063870992 -0.016702048 0.023712436 6579300
0.0063844821 -0.022095123 0.023715401 6579300
0.006403239 -0.030137774 0.023694146 6579300
0.0062838579 -0.017398896 0.023829421 6579300
0.0063800425 -0.053617276 0.02372043 6579300
0.0063578608 -0.044332515 0.023745567 6579300
0.0063453703 -0.0091958148 0.023759719 6579300
0.006294053 -0.013198145 0.023817869 6579300
0.0063963463 -0.049530096 0.023701956 6579300
0.0064478819 -0.014189541 0.023643561 6579300
0.0063634426 -0.018854946 0.023739241 6579300
0.0063380613 -0.029183479 0.023768 6579300
0.0063804486 -0.021252394 0.023719972 6579300
0.0062946212 -0.045555431 0.023817224 6579300
0.0064007984 -0.027552489 0.023696912 6579300
0.0063740946 -0.051198952 0.023727171 6579300
0.0065178433 -0.0046169311 0.023564285 6579300
0.0064652986 -0.022890309 0.023623826 6579300
0.0061610877 -0.078735337 0.023955351 6579300
0.0060866266 -0.073796786 0.024031691 6579300
0.0062832437 -0.07203199 0.02383011 6579300
0.0060936017 -0.073056862 0.024024541 6579300
0.0060763028 -0.063768625 0.024042277 6579300
0.0062776324 -0.064771757 0.023835864 6579300
0.006235172 -0.023988908 0.023879396 6579300
0.0061237202 -0.07615833 0.023993662 6579300
0.006141813 -0.068624839 0.023975112 6579300
0.0062485463 -0.03879904 0.023865683 6579300
0.0060839122 -0.082727142 0.024034474 6579300
0.0060613747 -0.066847794 0.02405758 6579300
0.0061489539 -0.071368225 0.023967791 6579300
0.0062157558 -0.075150035 0.023899302 6579300
0.0062562963 -0.060891118 0.023857739 6579300
0.0061148149 -0.062202141 0.02400279 6579300
0.0062745679 -0.060171641 0.023839004 6579300
0.0062530735 -0.083472118 0.023861043 6579300
0.0062266011 -0.050553098 0.023888184 6579300
0.0062232944 -0.031214181 0.023891572 6579300
0.0061967471 -0.055920947 0.023918791 6579300
0.0061005368 -0.069819242 0.024017429 6579300
0.0060251732 -0.0076958742 0.024094695 6579300
0.0061825714 -0.0068400041 0.023933323 6579300
0.006264661 -0.0014940833 0.023849161 6579300
0.0060874117 -0.049036596 0.024030887 6579300
0.0061455271 -0.0032241463 0.023971304 6579300
0.0062221806 -0.010677436 0.023892716 6579300
0.0061165732 -0.033813722 0.024000987 6579300
0.0061162864 -0.025939452 0.024001282 6579300
0.0060938722 -0.047645614 0.024024263 6579300
0.0061040721 -0.036404017 0.024013806 6579300
0.0060536023 -0.019493079 0.024065549 6579300
0.0060696695 -0.038148105 0.024049077 6579300
0.006010633 -0.070445359 0.024109604 6579300
0.0061966367 -0.011402102 0.023918904 6579300
0.0059952638 -0.018350324 0.02412536 6579300
0.0059908237 -0.04832821 0.024129912 6579300
0.0061611473 -0.015935997 0.023955289 6579300
0.0060828803 -0.041494623 0.024035532 6579300
0.0059919232 -0.079590157 0.024128785 6579300
0.0060543618 -0.054476224 0.02406477 6579300
0.0060220459 -0.028132185 0.024097903 6579300
0.0061644423 -0.012562838 0.02395191 6579300
0.0060333684 -0.055203799 0.024086295 6579300
0.0059972699 -0.051738471 0.024123304 6579300
0.0061206045 -0.037076458 0.023996856 6579300
0.0061424281 -0.035257611 0.023974482 6579300
0.0058548367 -0.050904498 0.024256671 6579300
0.005981985 -0.044686582 0.024138693 6579300
0.0058735521 -0.052526999 0.024239305 6579300
0.0059236484 -0.061557937 0.024192821 6579300
0.0058998922 -0.027330056 0.024214866 6579300
0.005792818 -0.083326392 0.024314217 6579300
0.0058001485 -0.065072455 0.024307415 6579300
0.005908418 -0.072378568 0.024206955 6579300
0.0059430911 -0.056829341 0.024174782 6579300
0.005832368 -0.080485113 0.024277519 6579300
0.0058497121 -0.078280151 0.024261426 6579300
0.005949568 -0.023509124 0.024168771 6579300
0.0059305653 -0.042953227 0.024186404 6579300
0.0059721186 -0.067660078 0.024147848 6579300
0.0059637688 -0.033187069 0.024155594 6579300
0.0059002796 -0.043952871 0.024214506 6579300
0.0059708999 -0.042229872 0.024148978 6579300
0.005852595 -0.03947961 0.024258751 6579300
0.0059198709 -0.074422918 0.024196327 6579300
0.005899719 -0.030775147 0.024215026 6579300
0.0058707269 -0.053421639 0.024241926 6579300
0.0057483823 -0.065973409 0.024355449 6579300
0.0057851686 -0.077203609 0.024321316 6579300
0.0057426407 -0.075753734 0.024360776 6579300
0.0059275487 -0.032443073 0.024189202 6579300
0.0059658233 -0.014238983 0.024153689 6579300
0.0059814006 -0.059177548 0.024139235 6579300
0.005757323 -0.031562395 0.024347153 6579300
0.0057036136 -0.00082574104 0.024396989 6579300
0.005829907 -0.0059072608 0.024279803 6579300
0.005706775 -0.060617778 0.024394056 6579300
0.0058147595 -0.0026972529 0.024293859 6579300
0.0056745633 -0.081830785 0.024423944 6579300
0.0057928739 -0.05006529 0.024314165 6579300
0.0058483537 -0.025214737 0.024262687 6579300
0.0057034483 -0.05805508 0.024397142 6579300
0.0056787869 -0.058706712 0.024420025 6579300
0.0057618772 -0.010293603 0.024342926 6579300
0.0059476933 -0.0046703457 0.02417051 6579300
0.005771419 -0.0014761926 0.024334073 6579300
0.0057128118 -0.020951809 0.024388455 6579300
0.0059051989 -0.020209031 0.024209941 6579300
0.0056934049 -0.01152561 0.024406461 6579300
0.0057404255 -0.0094672814 0.024362832 6579300
0.0059655444 -0.0039069736 0.024153948 6579300
0.005742928 -0.034741715 0.02436051 6579300
0.0058005359 -0.047124326 0.024307055 6579300
0.0058444687 -0.015251861 0.024266291 6579300
0.0058656354 -0.022269771 0.024246652 6579300
0.0056915204 -0.068498924 0.02440821 6579300
0.0056583406 -0.007069991 0.024437821 6579300
0.0053899614 -0.072548382 0.024663011 6579300
0.0056059211 -0.022899458 0.024481803 6579300
0.0054690484 -0.06764815 0.02459665 6579300
0.0056145955 -0.056257006 0.024474526 6579300
0.0054438594 -0.074369833 0.024617786 6579300
0.0054634777 -0.056931157 0.024601324 6579300
0.0054646232 -0.059497554 0.024600362 6579300
0.0056641549 -0.076552086 0.024432942 6579300
0.0055790124 -0.040613431 0.024504382 6579300
0.0056284857 -0.047715887 0.024462871 6579300
0.0053843297 -0.078595124 0.024667734 6579300
0.0056354413 -0.037175667 0.024457034 6579300
0.0056107151 -0.054135717 0.024477782 6579300
0.0055380152 -0.054822609 0.024538781 6579300
0.0054771584 -0.08119823 0.024589846 6579300
0.0055814218 -0.036350936 0.024502361 6579300
0.0055236234 -0.046105262 0.024550857 6579300
0.0056674103 -0.069145247 0.02443021 6579300
0.0056125792 -0.073475271 0.024476217 6579300
0.0056695561 -0.016567061 0.02442841 6579300
0.0055743959 -0.045302857 0.024508256 6579300
0.0055153472 -0.07964354 0.024557803 6579300
0.0056561632 -0.063069686 0.024439648 6579300
0.0054545715 -0.069950603 0.024608798 6579300
0.0054049385 -0.065428972 0.024650443 6579300
0.0055946601 -0.012261622 0.024491252 6579300
0.0054588704 -0.038355947 0.02460519 6579300
0.0053693349 -0.026373388 0.024680316 6579300
0.0054460037 -0.023554545 0.024615986 6579300
0.0054291235 -0.033737972 0.02463015 6579300
0.0054191709 -0.043397099 0.0246385 6579300
0.0053884308 -0.051240765 0.024664294 6579300
0.0055375588 -0.024292214 0.024539165 6579300
0.0055722464 -0.018555716 0.02451006 6579300
0.0054259691 -0.052927721 0.024632797 6579300
0.005438203 -0.013776948 0.024622532 6579300
0.0055973544 -0.015796134 0.024488991 6579300
0.0053871251 -0.061869334 0.024665389 6579300
0.0055484083 -0.030220604 0.024530062 6579300
0.0054132817 -0.01933394 0.024643442 6579300
0.0054413648 -0.052283801 0.024619879 6579300
0.0054422393 -0.0019634473 0.024619145 6579300
0.0055495789 -0.014498909 0.024529079 6579300
0.005463121 -0.0088190241 0.024601623 6579300
0.0055610701 -0.01293904 0.024519438 6579300
0.0054536923 -0.042596053 0.024609536 6579300
0.005355747 -0.0712853 0.024691718 6579300
0.0055807489 -0.017276715 0.024502926 6579300
0.0053233742 -0.050254881 0.024717182 6579300
0.0051171929 -0.058948252 0.024873361 6579300
0.0052460432 -0.062550515 0.02477576 6579300
0.0053016762 -0.064467087 0.024733618 6579300
0.0053046145 -0.029343538 0.024731392 6579300
0.0053220508 -0.053610343 0.024718184 6579300
0.0052070394 -0.035735447 0.024805304 6579300
0.0051925792 -0.083718024 0.024816258 6579300
0.0052041872 -0.03469234 0.024807464 6579300
0.0051844725 -0.048686836 0.024822399 6579300
0.005315179 -0.077289231 0.02472339 6579300
0.0053111976 -0.039984111 0.024726406 6579300
0.0051284353 -0.070636705 0.024864845 6579300
0.0053047328 -0.032035019 0.024731303 6579300
0.0050742235 -0.067095973 0.024905911 6579300
0.0051287496 -0.068695702 0.024864607 6579300
0.005116065 -0.05747113 0.024874216 6579300
0.0053397655 -0.0078070061 0.024704766 6579300
0.0052166386 -0.08061707 0.024798034 6579300
0.0052448544 -0.028646901 0.02477666 6579300
0.0053044609 -0.075104922 0.024731509 6579300
0.0050955396 -0.044609796 0.024889763 6579300
0.0051438631 -0.031382777 0.024853159 6579300
0.0050303615 -0.029929131 0.024939135 6579300
0.0053053368 -0.0065137828 0.024730846 6579300
0.0050331126 -0.075806968 0.02493705 6579300
0.0050367787 -0.024757214 0.024934273 6579300
0.0050123124 -0.055592936 0.024952807 6579300
0.0051515335 -0.0042956709 0.024847349 6579300
0.0051124841 -0.02694631 0.024876928 6579300
0.0050391001 -0.037799478 0.024932515 6579300
0.0050986079 -0.012675666 0.024887439 6579300
0.005071844 -0.020783996 0.024907712 6579300
0.0050165709 -0.01701072 0.02494958 6579300
0.005185225 -0.010837767 0.024821829 6579300
0.0050497237 -0.0013703416 0.024924468 6579300
0.0050466941 -0.046641238 0.024926763 6579300
0.0052217292 -0.0030851753 0.024794176 6579300
0.0051564495 -0.027676702 0.024843626 6579300
0.0050836434 -0.047379281 0.024898775 6579300
0.0052361912 -0.021401389 0.024783222 6579300
0.0051694782 -0.041744012 0.024833756 6579300
0.0053161168 -0.0055169505 0.02472268 6579300
0.0050544073 -0.030610988 0.02492092 6579300
0.0050266637 -0.054537356 0.024941936 6579300
0.0050070779 -0.082138956 0.024956772 6579300
0.0050260811 -0.056299809 0.024942378 6579300
0.0049373917 -0.074494526 0.025004553 6579300
0.0048853406 -0.07285706 0.02504004 6579300
0.004904855 -0.078330271 0.025026735 6579300
0.0049982481 -0.0083183376 0.024963062 6579300
0.0049119033 -0.079541199 0.025021929 6579300
0.0049283989 -0.06510742 0.025010683 6579300
0.0049065431 -0.072162963 0.025025584 6579300
0.0049796808 -0.020028388 0.024975721 6579300
0.0049018869 -0.06381733 0.025028758 6579300
0.0048309104 -0.051248111 0.025077149 6579300
0.0049493127 -0.049298424 0.024996424 6579300
0.0048410157 -0.050504722 0.025070259 6579300
0.0047868881 -0.080298819 0.025107162 6579300
0.0049178461 -0.022786135 0.025017878 6579300
0.0049463334 -0.058248356 0.024998456 6579300
0.0047374796 -0.066508293 0.025140848 6579300
0.0048667439 -0.067993045 0.025052719 6579300
0.0047578556 -0.075185105 0.025126956 6579300
0.0048739254 -0.060684502 0.025047822 6579300
0.0049329894 -0.076768972 0.025007553 6579300
0.0049186675 -0.032501753 0.025017317 6579300
0.0049110856 -0.059890453 0.025022486 6579300
0.0048565404 -0.06192657 0.025059674 6579300
0.0049247532 -0.045853898 0.025013169 6579300
0.004937754 -0.016201949 0.025004305 6579300
0.0046567782 -0.0077764946 0.025195869 6579300
0.00471438 -0.031795349 0.025156597 6579300
0.0047548111 -0.010299725 0.025129031 6579300
0.0046819546 -0.021293959 0.025178704 6579300
0.0048176358 -0.038397178 0.0250862 6579300
0.0047723856 -0.02636259 0.025117049 6579300
0.0047891224 -0.04512573 0.025105638 6579300
0.0047245706 -0.042218868 0.025149649 6579300
0.0049193534 -0.0095786899 0.02501685 6579300
0.0047580181 -0.005812536 0.025126845 6579300
0.0047858409 -0.011573577 0.025107875 6579300
0.0047831843 -0.052243117 0.025109688 6579300
0.0046648858 -0.02557072 0.02519034 6579300
0.0047306987 -0.03384652 0.025145471 6579300
0.0049797767 -0.00071976025 0.024975656 6579300
0.0049690171 -0.0071563399 0.024982991 6579300
0.0048267543 -0.039402355 0.025079982 6579300
0.0048198798 -0.015128984 0.025084669 6579300
0.0047724741 -0.028818576 0.025116989 6579300
0.0046812454 -0.013105507 0.025179187 6579300
0.004920858 -0.013660382 0.025015824 6579300
0.0046844902 -0.0037262512 0.025176974 6579300
0.004670186 -0.071508668 0.025186727 6579300
0.0046760654 -0.018999185 0.025182718 6579300
0.0047337213 -0.062654428 0.025143411 6579300
0.0046772123 -0.035456784 0.025181936 6579300
0.0044896975 -0.04980715 0.02529842 6579300
0.0043540252 -0.079744175 0.025381327 6579300
0.0046091112 -0.068873219 0.025225447 6579300
0.0045035854 -0.065685377 0.025289932 6579300
0.0045625395 -0.02387633 0.025253907 6579300
0.0046206601 -0.059279539 0.02521839 6579300
0.0045896098 -0.083129182 0.025237365 6579300
0.0045434739 -0.03675776 0.025265558 6579300
0.0046193968 -0.036081359 0.025219163 6579300
0.0046361149 -0.040931385 0.025208946 6579300
0.0046065669 -0.057208326 0.025227003 6579300
0.0044850386 -0.070553057 0.025301266 6579300
0.0045167697 -0.047687784 0.025281876 6579300
0.0045770681 -0.02776734 0.025245029 6579300
0.0043245386 -0.079079784 0.025399346 6579300
0.0044532018 -0.082115136 0.025320722 6579300
0.0045587029 -0.081376083 0.025256252 6579300
0.0043959632 -0.073654748 0.025355699 6579300
0.0045492668 -0.056559332 0.025262019 6579300
0.0046174717 -0.053951118 0.025220338 6579300
0.0045216805 -0.021909382 0.025278876 6579300
0.0042874343 -0.042863633 0.02542202 6579300
0.0044838767 -0.0067211408 0.025301976 6579300
0.0044564395 -0.017982425 0.025318744 6579300
0.0043597752 -0.064847864 0.025377812 6579300
0.0043132314 -0.013664011 0.025406254 6579300
0.0044562742 -0.040134147 0.025318844 6579300
0.0043718889 -0.041729491 0.02537041 6579300
0.0045269225 -0.00032994882 0.025275672 6579300
0.0044994871 -0.033042651 0.025292438 6579300
0.0045928797 -0.0021177537 0.025235366 6579300
0.0044843983 -0.015710957 0.025301658 6579300
0.0042975466 -0.04360031 0.02541584 6579300
0.0043857559 -0.03882546 0.025361937 6579300
0.0044832588 -0.014572266 0.025302354 6579300
0.0043598716 -0.055404942 0.025377754 6579300
0.0042948481 -0.028357897 0.025417488 6579300
0.0044068401 -0.0014428715 0.025349053 6579300
0.0045038899 -0.029498799 0.025289746 6579300
0.0042989911 -0.034414668 0.025414957 6579300
0.0043756859 -0.0031477648 0.025368091 6579300
0.0044312584 -0.037960872 0.025334131 6579300
0.0045778886 -0.0089644473 0.025244528 6579300
0.0043093935 -0.020179955 0.0254086 6579300
0.0044061583 -0.005149141 0.025349468 6579300
0.0042459876 -0.045607973 0.025444705 6579300
0.0040198509 -0.080265872 0.025567852 6579300
0.0041678669 -0.051770512 0.025487248 6579300
0.0042100991 -0.047034569 0.025464248 6579300
0.0042284215 -0.071990415 0.02545427 6579300
0.0041773138 -0.059928261 0.025482101 6579300
0.004086378 -0.075998709 0.025531624 6579300
0.0040857848 -0.062279146 0.025531948 6579300
0.0041791368 -0.026382711 0.02548111 6579300
0.0041876924 -0.025101719 0.02547645 6579300
0.0042362846 -0.030573385 0.025449988 6579300
0.0041628266 -0.037275869 0.025489992 6579300
0.0041938382 -0.075308904 0.025473103 6579300
0.0042752987 -0.023275862 0.025428742 6579300
0.0040486208 -0.066668019 0.025552185 6579300
0.0041543464 -0.060814053 0.025494609 6579300
0.0042741224 -0.052473869 0.025429383 6579300
0.0041119405 -0.051058657 0.025517702 6579300
0.0041594035 -0.069428615 0.025491856 6579300
0.0042088013 -0.067256443 0.025464956 6579300
0.004242986 -0.012002954 0.025446339 6579300
0.004256845 -0.068031393 0.025438791 6579300
0.0041449624 -0.076735653 0.02549972 6579300
0.0041927896 -0.077763125 0.025473675 6579300
0.003956385 -0.061456751 0.025602415 6579300
0.0040311217 -0.0085119223 0.025561715 6579300
0.0040020025 -0.054006826 0.025577573 6579300
0.0040553929 -0.048704643 0.025548497 6579300
0.0040743388 -0.024395144 0.02553818 6579300
0.0039911172 -0.058378115 0.0255835 6579300
0.0039806198 -0.027133159 0.025589217 6579300
0.0041931691 -0.010539658 0.025473468 6579300
0.0039659939 -0.021374911 0.025597181 6579300
0.0039769863 -0.057695914 0.025591196 6579300
0.0040516085 -0.035081014 0.025550557 6579300
0.0040297639 -0.056079477 0.025562454 6579300
0.0041807732 -0.019345202 0.025480218 6579300
0.0039607836 -0.028992154 0.02560002 6579300
0.0041355025 -0.017428594 0.025504872 6579300
0.0039479425 -0.0067165587 0.025607012 6579300
0.0039441423 -0.033882741 0.025609082 6579300
0.0041023321 -0.0045032343 0.025522936 6579300
0.0039970018 -0.00055969623 0.025580296 6579300
0.003924673 -0.0092720082 0.025619684 6579300
0.0041247155 -0.032557596 0.025510745 6579300
0.0039475029 -0.022220276 0.025607251 6579300
0.0040836269 -0.012875739 0.025533121 6579300
0.0039726095 -0.011118625 0.025593579 6579300
0.0040558004 -0.0057760691 0.025548276 6579300
0.0039346577 -0.071363039 0.025614247 6579300
0.0036317059 -0.031988773 0.025761673 6579300
0.0035732819 -0.048250761 0.02578981 6579300
0.0035855419 -0.051364157 0.025783906 6579300
0.0037152148 -0.01636965 0.025721457 6579300
0.0036040526 -0.059961516 0.025774991 6579300
0.0036505421 -0.013636597 0.025752602 6579300
0.0035461399 -0.018579125 0.025802881 6579300
0.0036394885 -0.035895795 0.025757926 6579300
0.0036584351 -0.05215659 0.025748802 6579300
0.0035658469 -0.07226187 0.02579339 6579300
0.0036823628 -0.017058542 0.025737278 6579300
0.003567284 -0.070003837 0.025792699 6579300
0.0036818346 -0.036540985 0.025737533 6579300
0.0035902231 -0.0074998531 0.025781652 6579300
0.0038039123 -0.0028299475 0.025678741 6579300
0.0036610938 -0.039056301 0.025747521 6579300
0.0037379027 -0.001236696 0.025710531 6579300
0.0035559428 -0.041887969 0.025798161 6579300
0.003617818 -0.0036396652 0.025768362 6579300
0.0035672935 -0.050388079 0.025792694 6579300
0.0036970223 -0.041033503 0.025730219 6579300
0.0035463048 -0.067254707 0.025802802 6579300
0.0037193329 -0.033077344 0.025719473 6579300
0.0038188507 -0.0021736606 0.025671547 6579300
0.0038236964 -0.074650086 0.025669213 6579300
0.0037237292 -0.0828012 0.025717357 6579300
0.0038245502 -0.038297195 0.025668802 6579300
0.0038989438 -0.047557827 0.025632976 6579300
0.0036378526 -0.062873773 0.025758713 6579300
0.0036838318 -0.083831824 0.02573657 6579300
0.0038347507 -0.057061516 0.02566389 6579300
0.0038531164 -0.046292391 0.025655046 6579300
0.0036961685 -0.068452314 0.02573063 6579300
0.0037332263 -0.073870614 0.025712783 6579300
0.0038775259 -0.064156316 0.025643291 6579300
0.0037380962 -0.066052802 0.025710437 6579300
0.0036343457 -0.07557717 0.025760403 6579300
0.0038378076 -0.063531578 0.025662418 6579300
0.0036731446 -0.053331565 0.025741717 6579300
0.0036131293 -0.077800736 0.02577062 6579300
0.0038619433 -0.078590505 0.025650794 6579300
0.0037705828 -0.044096667 0.025694793 6579300
0.0038607172 -0.049481388 0.025651384 6579300
0.0037549878 -0.039729588 0.025702303 6579300
0.0039005191 -0.054695908 0.025632218 6579300
0.0038155131 -0.079464883 0.025673155 6579300
0.0038470884 -0.072846651 0.025657948 6579300
0.0038775797 -0.080892183 0.025643265 6579300
0.0038179951 -0.031292446 0.025671959 6579300
0.0038138181 -0.042580694 0.025673971 6579300
0.0038790016 -0.014724504 0.025642579 6579300
0.0038746896 -0.059105471 0.025644656 6579300
0.0035154896 -0.024688059 0.025817052 6579300
0.0034123529 -0.0054301652 0.025860528 6579300
0.0033422967 -0.023837341 0.025890058 6579300
0.0032478101 -0.011649591 0.025929889 6579300
0.0034740334 -0.069179296 0.025834527 6579300
0.0033005946 -0.02857128 0.025907638 6579300
0.0035039613 -0.012206757 0.025821911 6579300
0.0033964713 -0.026126303 0.025867222 6579300
0.0032513977 -0.001947738 0.025928376 6579300
0.0034646334 -0.030140283 0.025838489 6579300
0.003510332 -0.047002289 0.025819225 6579300
0.0034207152 -0.045843381 0.025857003 6579300
0.0033667181 -0.033839159 0.025879765 6579300
0.0032469861 -0.015469193 0.025930235 6579300
0.0035163823 -0.06538289 0.025816675 6579300
0.003214078 -0.00054207683 0.025944108 6579300
0.0033230465 -0.025356844 0.025898173 6579300
0.0033157452 -0.021594301 0.025901251 6579300
0.003515007 -0.040314667 0.025817255 6579300
0.003481748 -0.0082124146 0.025831275 6579300
0.0032893671 -0.01787018 0.025912371 6579300
0.0034546505 -0.048896499 0.025842698 6579300
0.0034701219 -0.022965234 0.025836175 6579300
0.0034253998 -0.019953554 0.025855027 6579300
0.0033333732 -0.020667065 0.02589382 6579300
0.0035210268 -0.043458764 0.025814718 6579300
0.0034078765 -0.03488097 0.025862414 6579300
0.0032677853 -0.019233432 0.025921468 6579300
0.0034477282 -0.0088458378 0.025845615 6579300
0.0034897269 -0.055324625 0.025827913 6579300
0.0032103411 -0.079322062 0.025945682 6579300
0.0032115132 -0.078243598 0.025945188 6579300
0.0032761574 -0.031084973 0.025917938 6579300
0.0031607833 -0.044047508 0.025966574 6579300
0.0034330443 -0.081638806 0.025851805 6579300
0.0033378445 -0.058691852 0.025891935 6579300
0.0031847199 -0.082500406 0.025956484 6579300
0.0033721747 -0.076875918 0.025877465 6579300
0.0032539633 -0.037198123 0.025927294 6579300
0.0031710702 -0.063952699 0.025962237 6579300
0.0031534035 -0.074359752 0.025969684 6579300
0.0031636292 -0.027659088 0.025965374 6579300
0.0033867767 -0.06183064 0.025871309 6579300
0.0032281179 -0.080571093 0.025938189 6579300
0.0032795386 -0.060762975 0.025916513 6579300
0.0028911207 -0.010137512 0.026066406 6579300
0.0027888364 -0.059559535 0.026103634 6579300
0.0027785574 -0.039234467 0.026107376 6579300
0.0028998451 -0.010791379 0.026063232 6579300
0.0029627963 -0.013191218 0.026040319 6579300
0.0030817501 -0.0033018102 0.025997024 6579300
0.0027439101 -0.03078185 0.026119987 6579300
0.0030194314 -0.022530179 0.026019705 6579300
0.0028943266 -0.017280871 0.02606524 6579300
0.0031077438 -0.001281442 0.025987564 6579300
0.0028473279 -0.0094804121 0.026082346 6579300
0.0028082407 -0.055755883 0.026096571 6579300
0.0027804901 -0.039998755 0.026106672 6579300
0.0028729141 -0.043006677 0.026073033 6579300
0.002958155 -0.0068457429 0.026042009 6579300
0.0029447954 -0.031717189 0.02604687 6579300
0.0028783495 -0.0083805965 0.026071055 6579300
0.0027973917 -0.032591809 0.02610052 6579300
0.0030606063 -0.006135324 0.02600472 6579300
0.0027902666 -0.062668294 0.026103115 6579300
0.002967688 -0.014053925 0.026038539 6579300
0.0030483084 -0.0046830182 0.026009196 6579300
0.0028231882 -0.02486378 0.026091132 6579300
0.0027638939 -0.023675982 0.026112713 6579300
0.0027382635 -0.077096142 0.026122041 6579300
0.0028870024 -0.012352224 0.026067905 6579300
0.0028616337 -0.046002515 0.026077138 6579300
0.0028330954 -0.0076017901 0.026087526 6579300
0.0029951788 -0.074996218 0.026028533 6579300
0.0027949892 -0.073274322 0.026101395 6579300
0.0030944634 -0.041410875 0.025992397 6579300
0.0028341345 -0.072664164 0.026087148 6579300
0.0030516209 -0.070788302 0.026007989 6579300
0.0028390072 -0.066947803 0.026085375 6579300
0.0029891971 -0.051021516 0.02603071 6579300
0.0027673466 -0.076402366 0.026111456 6579300
0.0029650293 -0.056853715 0.026039507 6579300
0.0030000838 -0.054684926 0.026026748 6579300
0.0029152592 -0.052337881 0.026057621 6579300
0.0031048195 -0.044735484 0.025988627 6579300
0.0030505301 -0.026994992 0.026008388 6579300
0.0029687705 -0.047204215 0.026038146 6579300
0.0030204894 -0.033331938 0.026019322 6579300
0.0028819083 -0.061493274 0.02606976 6579300
0.0027523539 -0.082954206 0.026116913 6579300
0.0030468695 -0.069748744 0.02600972 6579300
0.0030232151 -0.053582001 0.026018329 6579300
0.0029790748 -0.03632218 0.026034394 6579300
0.0029245329 -0.060286406 0.026054246 6579300
0.0031248832 -0.016305137 0.025981326 6579300
0.0030305777 -0.038471587 0.026015649 6579300
0.0030330201 -0.075680442 0.02601476 6579300
0.0029899084 -0.06794364 0.026030451 6579300
0.0030586997 -0.064855173 0.026005413 6579300
0.0031310434 -0.049881209 0.025979083 6579300
0.0025548707 -0.034510266 0.026179073 6579300
0.002375077 -0.055025082 0.02623453 6579300
0.0024408342 -0.054261908 0.026214248 6579300
0.0024220089 -0.033135138 0.026220053 6579300
0.0026266507 -0.018325021 0.026156932 6579300
0.0023880599 -0.038768318 0.026230525 6579300
0.0024264485 -0.0045266449 0.026218684 6579300
0.0023899348 -0.058151513 0.026229948 6579300
0.0025836893 -0.027511565 0.026170185 6579300
0.0026218647 -0.003827625 0.026158409 6579300
0.0026347351 -0.014610713 0.02615444 6579300
0.0024494485 -0.041523922 0.026211591 6579300
0.0023359451 -0.064785331 0.0262466 6579300
0.0023990548 -0.030114604 0.026227135 6579300
