# .PCD v0.7 - Point Cloud Data file format
VERSION 0.7
FIELDS x y z rgb
SIZE 4 4 4 4
TYPE F F F U
COUNT 1 1 1 1
WIDTH 999
HEIGHT 1
VIEWPOINT 0 0 0 1 0 0 0
POINTS 999
DATA ascii
-0.0081773633 -0.01024304 -0.0021209633 6579300
-0.0087032272 -0.010893572 -0.0019383772 6579300
-0.0089852521 -0.01036455 -0.0018263767 6579300
-0.0092197172 -0.0099276835 -0.0017333734 6579300
-0.0075304359 -0.010984839 -0.0023392672 6579300
-0.0082979091 -0.010775048 -0.0020759383 6579300
-0.0069722054 -0.012321544 -0.0025151933 6579300
-0.0060097133 -0.013681145 -0.0027921929 6579300
-0.0081320982 -0.011368662 -0.002131121 6579300
-0.007859515 -0.01190746 -0.002224372 6579300
-0.0086216806 -0.011468001 -0.0019696713 6579300
-0.0075891139 -0.01160285 -0.0023155531 6579300
-0.0070812516 -0.011869259 -0.0024892692 6579300
-0.0074291383 -0.012448536 -0.0023690599 6579300
-0.0065245791 -0.013175479 -0.0026398972 6579300
-0.007040109 -0.012739362 -0.0024872564 6579300
-0.0087358356 -0.011928772 -0.0019370711 6579300
-0.0080518164 -0.013114393 -0.0021758354 6579300
-0.0077697905 -0.012788507 -0.0022594179 6579300
-0.0081565548 -0.012303942 -0.002128301 6579300
-0.0071366378 -0.013218996 -0.0024550429 6579300
-0.0061070663 -0.014723703 -0.0027494011 6579300
-0.0055005616 -0.015506155 -0.0028990735 6579300
-0.0057338593 -0.015008938 -0.0028453739 6579300
-0.0074862614 -0.013658998 -0.0023524566 6579300
-0.0069876174 -0.013708781 -0.0024970272 6579300
-0.006499222 -0.014325092 -0.0026400222 6579300
-0.0060920855 -0.01416875 -0.0027634397 6579300
-0.0062530674 -0.015175728 -0.0027054339 6579300
-0.0078006824 -0.014351969 -0.0022699793 6579300
-0.0069836304 -0.014867426 -0.0025034179 6579300
-0.0073126876 -0.014476847 -0.002406609 6579300
-0.0049790768 -0.01778606 -0.0030044762 6579300
-0.0053075794 -0.017137634 -0.0029364545 6579300
-0.0042745606 -0.018047202 -0.0031581176 6579300
-0.0047000004 -0.016975792 -0.0030795422 6579300
-0.0062409751 -0.016310796 -0.0027083994 6579300
-0.006619974 -0.0160283 -0.0026141258 6579300
-0.0066003744 -0.015539064 -0.0026155508 6579300
-0.0066582896 -0.016450366 -0.0026075288 6579300
-0.0060904766 -0.01685621 -0.0027481264 6579300
-0.0053378968 -0.016131071 -0.0029360659 6579300
-0.0054855528 -0.016653161 -0.0028959855 6579300
-0.0061102668 -0.015829926 -0.0027395983 6579300
-0.0053459886 -0.019401342 -0.0029369916 6579300
-0.0057458892 -0.019133732 -0.0028535959 6579300
-0.004555345 -0.019920288 -0.0030908533 6579300
-0.0049185497 -0.019676737 -0.0030235958 6579300
-0.0048697875 -0.019246589 -0.0030299271 6579300
-0.0054034982 -0.018847218 -0.0029162702 6579300
-0.0040667653 -0.019753555 -0.0031778251 6579300
-0.0043910304 -0.019450953 -0.0031191213 6579300
-0.004641409 -0.018327117 -0.0030762984 6579300
-0.0054434212 -0.017771767 -0.0029029078 6579300
-0.0043226713 -0.018900614 -0.0031388905 6579300
-0.0050562667 -0.018353734 -0.002985483 6579300
-0.0055215005 -0.018405953 -0.0028889077 6579300
-0.0060478793 -0.017976074 -0.002776626 6579300
-0.0031479197 -0.00096919597 0.040435567 6579300
-0.0034325742 -0.0017217014 0.040554401 6579300
-0.0034009747 -0.0019050512 0.040015273 6579300
-0.0031492366 -0.0011647434 0.040045548 6579300
-0.0031005254 -0.0013188127 0.039421447 6579300
-0.0029790793 -0.0005018012 0.040387403 6579300
-0.0032108959 -0.0024047699 0.038169216 6579300
-0.0027451341 -6.5064807e-05 0.039762799 6579300
-0.0027730567 -0.00065032335 0.038706779 6579300
-0.0026147244 -0.00010062991 0.038799003 6579300
-0.0025365828 -7.3459865e-05 0.038324725 6579300
-0.002816651 -0.00043361177 0.039465085 6579300
-0.0028265759 -0.0011096178 0.03819041 6579300
-0.0027017652 -0.00065978779 0.038236998 6579300
-0.003001038 -0.0016583116 0.038269784 6579300
-0.0029786783 -0.00078896061 0.039773386 6579300
-0.0029075074 -0.00090545916 0.039063107 6579300
-0.003062116 -0.0014537228 0.038964517 6579300
-0.0029123691 -0.0011240132 0.038687415 6579300
-0.0041616498 -0.0040374608 0.040192153 6579300
-0.0038544608 -0.0033644147 0.039849073 6579300
-0.0041544535 -0.0037670957 0.040612075 6579300
-0.0043609752 -0.0045357388 0.040311292 6579300
-0.0040152692 -0.0035919647 0.040238414 6579300
-0.0038473085 -0.0030622876 0.040322598 6579300
-0.0037502863 -0.0026505357 0.040531188 6579300
-0.0036967981 -0.0027764691 0.040042162 6579300
-0.0035501567 -0.0025304772 0.03970826 6579300
-0.0033787068 -0.0024112624 0.039027784 6579300
-0.0036861629 -0.0030399282 0.039537966 6579300
-0.0033392173 -0.002036185 0.039466023 6579300
-0.0032707967 -0.0023164684 0.038633317 6579300
-0.0034391293 -0.0027937675 0.038684826 6579300
-0.0045276103 -0.0049406453 0.040435333 6579300
-0.0039764778 -0.0039092456 0.03954583 6579300
-0.0037293874 -0.003395485 0.039165661 6579300
-0.0039042477 -0.0048517999 0.037929401 6579300
-0.0034566864 -0.0033691325 0.037890874 6579300
-0.0036180778 -0.0038781615 0.037938494 6579300
-0.0037856949 -0.0044116164 0.037981648 6579300
-0.0033190814 -0.0029305578 0.037857652 6579300
-0.0035553887 -0.0033498041 0.038378298 6579300
-0.0037473454 -0.0038703885 0.038537543 6579300
-0.0040718331 -0.0043745223 0.039277833 6579300
-0.0039320122 -0.00428876 0.038797118 6579300
-0.0042128437 -0.0044658817 0.039755665 6579300
-0.0048430944 -0.0062455945 0.039890464 6579300
-0.0047329152 -0.005706232 0.040205665 6579300
-0.0051810378 -0.00692291 0.04028181 6579300
-0.005004962 -0.0063580358 0.040372573 6579300
-0.004563557 -0.0057361335 0.039471097 6579300
-0.0040790015 -0.0047047478 0.038841121 6579300
-0.0043825721 -0.0052089342 0.039434876 6579300
-0.0044358713 -0.0050507351 0.039885093 6579300
-0.00436363 -0.0054524792 0.039025236 6579300
-0.0045193508 -0.0059346789 0.039033595 6579300
-0.0050737495 -0.0069709825 0.039808448 6579300
-0.0048793652 -0.0067235455 0.039401889 6579300
-0.0043028542 -0.0056299921 0.038549736 6579300
-0.0040243799 -0.0048591327 0.038417753 6579300
-0.0058766161 -0.0091740787 0.039958384 6579300
-0.0057951808 -0.0087566366 0.040177472 6579300
-0.0054084426 -0.0087310579 0.038952369 6579300
-0.0060869018 -0.0095989117 0.040148772 6579300
-0.0055781286 -0.0084229857 0.039859563 6579300
-0.0055136736 -0.0078546815 0.040308401 6579300
-0.0056513408 -0.009087123 0.039328184 6579300
-0.0063162986 -0.011727139 0.038649831 6579300
-0.0065915151 -0.01254294 0.038654272 6579300
-0.0065417141 -0.01210264 0.038917083 6579300
-0.006412012 -0.013190742 0.037618909 6579300
-0.0065974887 -0.0129643 0.038292315 6579300
-0.0067958198 -0.013778588 0.038095612 6579300
-0.0073680482 -0.014415308 0.038953092 6579300
-0.0071738907 -0.01443483 0.038473509 6579300
-0.0072942283 -0.016006639 0.037501268 6579300
-0.0072920863 -0.015458191 0.037926149 6579300
-0.0068585235 -0.015583447 0.036842581 6579300
-0.0085598733 -0.01768353 0.038942087 6579300
-0.0084270239 -0.017858287 0.038524088 6579300
-0.0088789808 -0.018456826 0.038993411 6579300
-0.0081493817 -0.017471036 0.038251396 6579300
-0.0082949745 -0.017064778 0.038880967 6579300
-0.0079595484 -0.01704452 0.038177978 6579300
-0.0080285668 -0.016674023 0.038603179 6579300
-0.0087305931 -0.018938653 0.03835053 6579300
-0.0091436096 -0.019273717 0.038894728 6579300
-0.0087880567 -0.019374674 0.038134623 6579300
-0.009258653 -0.019900976 0.038646456 6579300
-0.008595231 -0.019697988 0.037536789 6579300
-0.0083336364 -0.019865917 0.036937047 6579300
-0.0081050545 -0.020012647 0.036412992 6579300
-0.0091419267 -0.020145005 0.03825346 6579300
-0.0087145772 -0.018569652 0.03858126 6579300
-0.0080582993 -0.017788582 0.037824642 6579300
-0.008448597 -0.018392596 0.038175814 6579300
-0.0083901761 -0.018804155 0.037767738 6579300
-0.0041176425 -0.0058956426 0.037502237 6579300
-0.004496411 -0.0070736608 0.037600685 6579300
-0.0044705514 -0.0067117452 0.037898295 6579300
-0.00455201 -0.0074519375 0.037393119 6579300
-0.0050800052 -0.0081655681 0.038438093 6579300
-0.0047336435 -0.0078551788 0.037601087 6579300
-0.0046894755 -0.0074646743 0.037873458 6579300
-0.0052384073 -0.0086484915 0.038452525 6579300
-0.0049030646 -0.0077818595 0.038253728 6579300
-0.0050324909 -0.0078062243 0.038681585 6579300
-0.0053065 -0.007944677 0.03949891 6579300
-0.0047896383 -0.0073324461 0.03836352 6579300
-0.0052324734 -0.0082688341 0.038859636 6579300
-0.0050946027 -0.0074957418 0.039262526 6579300
-0.0052548042 -0.0073460876 0.040009245 6579300
-0.0048117386 -0.0069148545 0.038933169 6579300
-0.0044413195 -0.0063430066 0.038215999 6579300
-0.0046307957 -0.0063979435 0.038890492 6579300
-0.0041244854 -0.0056236116 0.037835907 6579300
-0.0042954227 -0.0059391125 0.038127512 6579300
-0.0066784471 -0.011583403 0.039789692 6579300
-0.006305235 -0.010583465 0.039751731 6579300
-0.0064784619 -0.011133313 0.039678823 6579300
-0.0061417087 -0.010137775 0.039734885 6579300
-0.0057854815 -0.0095766867 0.039216958 6579300
-0.0062714494 -0.011340883 0.038891774 6579300
-0.006553866 -0.011691675 0.039330713 6579300
-0.0050240988 -0.0091824606 0.037233043 6579300
-0.0053669442 -0.0097462349 0.037766621 6579300
-0.0053478852 -0.0093375454 0.038109187 6579300
-0.0050763437 -0.0087563731 0.037805002 6579300
-0.0049041365 -0.0084293569 0.037569679 6579300
-0.0055752392 -0.010252745 0.037904359 6579300
-0.0058664572 -0.010761364 0.038273081 6579300
-0.0057091354 -0.010708966 0.037865397 6579300
-0.0054327985 -0.010259782 0.037484158 6579300
-0.005704992 -0.009804178 0.038734358 6579300
-0.0060160654 -0.010412872 0.039058521 6579300
-0.005562745 -0.0093101691 0.038806144 6579300
-0.0055682957 -0.0098818755 0.038239777 6579300
-0.0061539938 -0.010894073 0.039000597 6579300
-0.0060727233 -0.011056543 0.038600702 6579300
-0.005724187 -0.01026209 0.038333725 6579300
-0.0071758209 -0.013436804 0.039343536 6579300
-0.0068413569 -0.012569017 0.039293867 6579300
-0.0070522912 -0.013654903 0.03884187 6579300
-0.0072552576 -0.01400551 0.039030224 6579300
-0.006944262 -0.013214142 0.038964819 6579300
-0.0075175688 -0.014265089 0.039443627 6579300
-0.0061009275 -0.0126886 0.037238635 6579300
-0.0058181211 -0.011772113 0.03723368 6579300
-0.0055273571 -0.010950094 0.037129462 6579300
-0.0059721796 -0.011642282 0.03777251 6579300
-0.0059092813 -0.011190428 0.03799798 6579300
-0.0057477942 -0.011207102 0.037521631 6579300
-0.0063661421 -0.012567149 0.038031504 6579300
-0.0061564702 -0.011736858 0.0382117 6579300
-0.0080285212 -0.016032171 0.039121289 6579300
-0.0077738711 -0.015210958 0.039241113 6579300
-0.0075587886 -0.01489953 0.039008491 6579300
-0.0072922702 -0.01507658 0.03823242 6579300
-0.0079307565 -0.016257083 0.038720317 6579300
-0.0076655583 -0.016238185 0.038156465 6579300
-0.0076256441 -0.015824817 0.038399838 6579300
-0.0083395634 -0.016783269 0.039192088 6579300
-0.0074555967 -0.015848625 0.037991937 6579300
-0.0076445774 -0.015477791 0.038718589 6579300
-0.0067171748 -0.014550729 0.037280712 6579300
-0.0065794932 -0.014728252 0.036822189 6579300
-0.0063116834 -0.013489415 0.037112664 6579300
-0.0065965671 -0.014121677 0.037319709 6579300
-0.0066341483 -0.013801084 0.037671629 6579300
-0.0070807319 -0.015293704 0.037574567 6579300
-0.0069177002 -0.014908824 0.037484847 6579300
-0.0068297731 -0.015164782 0.037090417 6579300
-0.0069596153 -0.014300619 0.038072012 6579300
-0.0073570795 -0.017258529 0.036744647 6579300
-0.0069364896 -0.016232273 0.03654715 6579300
-0.0070678811 -0.016718816 0.036495984 6579300
-0.0073651122 -0.017704291 0.036458567 6579300
-0.0070528975 -0.015960583 0.036993641 6579300
-0.0074862805 -0.01647947 0.037581641 6579300
-0.0072652884 -0.016663242 0.036954369 6579300
-0.0077085542 -0.016899858 0.03774881 6579300
-0.0076976623 -0.018150901 0.036833081 6579300
-0.0077958535 -0.017530747 0.037472989 6579300
-0.0075656632 -0.017253302 0.037185721 6579300
-0.0077975928 -0.019128531 0.036389161 6579300
-0.0076853386 -0.018579993 0.036520764 6579300
-0.0083760871 -0.019311266 0.037383527 6579300
-0.0079846364 -0.019518448 0.036503986 6579300
-0.0079033636 -0.018182876 0.037238527 6579300
-0.0080263438 -0.018679107 0.037132714 6579300
-0.0081731295 -0.018387064 0.037629992 6579300
-0.0130588 -0.0007704029 0.00068701879 6579300
-0.01313194 -0.00049300463 0.00028080319 6579300
-0.012687147 -0.0017086726 -2.1615172e-06 6579300
-0.012329523 -0.0027843576 0.00016531018 6579300
-0.012487243 -0.0022778485 -1.5866568e-05 6579300
-0.011515531 -0.0052818609 0.0015985271 6579300
-0.011469705 -0.0050357981 -0.00056566496 6579300
-0.011164897 -0.0058893841 -0.00059825799 6579300
-0.011602715 -0.0047997204 -0.00012714208 6579300
-0.011443511 -0.0052867713 -8.0963444e-05 6579300
-0.010653782 -0.0078051137 0.00095023401 6579300
-0.0089754555 -0.011926174 0.0032632642 6579300
-0.010762385 -0.0069483109 -0.00084282953 6579300
-0.01069482 -0.0073507335 -0.00037964588 6579300
-0.010509971 -0.007778578 -0.00064810313 6579300
-0.010285686 -0.0080948435 -0.0012692142 6579300
-0.0097894724 -0.010322222 0.00081016857 6579300
-0.009296922 -0.010675863 -0.0016387213 6579300
-0.0097062979 -0.0097061107 -0.0013507418 6579300
-0.0098206121 -0.0096263634 -0.0009105014 6579300
-0.0098664239 -0.0092820795 -0.001288154 6579300
-0.0081333779 -0.014749761 0.0027272794 6579300
-0.0088764802 -0.012862097 0.00023897334 6579300
-0.0088999188 -0.012137508 -0.0011477555 6579300
-0.0085583413 -0.01250668 -0.0019878247 6579300
-0.0081345299 -0.013571543 -0.0021418412 6579300
-0.0087277982 -0.01233274 -0.0015897845 6579300
-0.0084036421 -0.013126195 -0.0017356635 6579300
-0.0080393879 -0.015267379 0.00013561283 6579300
-0.0070070163 -0.018063547 0.0025249948 6579300
-0.0073344014 -0.015619085 -0.0023292601 6579300
-0.0075298613 -0.015091399 -0.0023186204 6579300
-0.0080103753 -0.014411255 -0.0015194543 6579300
-0.0073772715 -0.015837207 -0.0019362004 6579300
-0.0069539561 -0.018111849 -0.00046240824 6579300
-0.0066230944 -0.019304832 7.2121693e-06 6579300
-0.0063064303 -0.020103954 -0.0002071427 6579300
-0.0068128677 -0.017278017 -0.0021027674 6579300
-0.0067476602 -0.01706499 -0.0025066596 6579300
-0.0064625437 -0.017872952 -0.002468168 6579300
-0.006690687 -0.017733077 -0.0019690392 6579300
-0.0064468044 -0.018248541 -0.0021212765 6579300
-0.012597624 -0.0008140154 0.0044290246 6579300
-0.0131709 -0.00012678074 0.0030343446 6579300
-0.012183261 -0.002177261 0.0041783703 6579300
-0.012966242 -0.0008107996 0.0027525437 6579300
-0.012626668 -0.0014341355 0.0034993798 6579300
-0.012481553 -0.0019755666 0.003282309 6579300
-0.012630915 -0.0016947719 0.0029494381 6579300
-0.012356482 -0.0024167246 0.0030955474 6579300
-0.012526038 -0.0021607426 0.0025573496 6579300
-0.012151989 -0.0025498299 0.003828703 6579300
-0.013291531 -2.8514578e-05 0.0022594999 6579300
-0.013216602 -0.00030935614 0.0018938625 6579300
-0.013061863 -0.00066311046 0.0023466519 6579300
-0.011882477 -0.0031750815 0.0039962144 6579300
-0.013145681 -0.00054943294 0.0014336873 6579300
-0.011888397 -0.0034554917 0.003600785 6579300
-0.011548476 -0.0034295928 0.0046312585 6579300
-0.011314089 -0.0042716376 0.0044471449 6579300
-0.011521455 -0.0038809436 0.0043005082 6579300
-0.012927593 -0.0011457794 0.001886002 6579300
-0.01290543 -0.0012248181 0.00085959327 6579300
-0.013003346 -0.00095850823 0.0011948943 6579300
-0.012881554 -0.0013185929 0.0013863017 6579300
-0.012731206 -0.0017468439 0.0012446116 6579300
-0.012288106 -0.0028463828 0.002559908 6579300
-0.012060228 -0.0034044683 0.0028104752 6579300
-0.011054336 -0.0050616809 0.0043676584 6579300
-0.011860097 -0.0038808342 0.0030378893 6579300
-0.012020148 -0.0036545792 0.0024491476 6579300
-0.010877567 -0.005712219 0.0042188647 6579300
-0.011674786 -0.0042523011 0.0033105556 6579300
-0.011712443 -0.004369467 0.0029026598 6579300
-0.01156366 -0.0048489287 0.0027909265 6579300
-0.012748896 -0.0016717145 0.00077813386 6579300
-0.012846176 -0.0013463196 0.00042228951 6579300
-0.012535163 -0.0022923779 0.00072764221 6579300
-0.012383278 -0.0027434195 0.0017794584 6579300
-0.012205308 -0.0032488776 0.0018185187 6579300
-0.011317154 -0.0052063609 0.0034090264 6579300
-0.012449975 -0.0025577778 0.0012463455 6579300
-0.012290509 -0.0030296613 0.0010462474 6579300
-0.011150602 -0.0057346378 0.0033412944 6579300
-0.011994704 -0.0038417138 0.0019687873 6579300
-0.010978889 -0.0060546622 0.0035659606 6579300
-0.012119832 -0.0034909463 0.0006894393 6579300
-0.012039255 -0.0037726574 0.0012837964 6579300
-0.011972558 -0.0039396673 0.0008007799 6579300
-0.011912246 -0.0041349567 0.0015974531 6579300
-0.010672379 -0.0066186883 0.0039018644 6579300
-0.010925953 -0.0064277109 0.0032571652 6579300
-0.011713677 -0.0046978984 0.0017531895 6579300
-0.011743878 -0.0046393853 0.0013046744 6579300
-0.011378529 -0.0056816181 0.0016836347 6579300
-0.011269241 -0.0057911407 0.0025361932 6579300
-0.011404861 -0.005528837 0.0021505132 6579300
-0.011007844 -0.0064948932 0.0026969712 6579300
-0.011200454 -0.0061120195 0.0021919957 6579300
-0.011876422 -0.0039977632 -0.00018529444 6579300
-0.012188801 -0.0032082018 0.00022557862 6579300
-0.012009368 -0.0037159598 0.00019180794 6579300
-0.010593166 -0.0075162584 0.0030136027 6579300
-0.010844704 -0.0068084276 0.0030088162 6579300
-0.011658723 -0.0044847014 -0.00059547805 6579300
-0.010902232 -0.0068982905 0.0024572606 6579300
-0.011885807 -0.0041196519 0.00039067917 6579300
-0.011475976 -0.0054156356 0.001160931 6579300
-0.010015861 -0.0086615896 0.0036612293 6579300
-0.011322774 -0.0058524124 0.0011160865 6579300
-0.011370282 -0.0056082513 0.00030887651 6579300
-0.011518352 -0.0052142832 0.00046686339 6579300
-0.011131929 -0.006413429 0.0015869145 6579300
-0.011160127 -0.0062928158 0.00070624403 6579300
-0.010315881 -0.0084578842 0.002753885 6579300
-0.011178399 -0.006151902 0.00024714647 6579300
-0.010987513 -0.0068504135 0.0013690861 6579300
-0.010135034 -0.0089086536 0.0029118191 6579300
-0.010791479 -0.0074097035 0.0010928774 6579300
-0.01104024 -0.0066783959 0.00090595789 6579300
-0.010578982 -0.0080385571 0.001434597 6579300
-0.010464321 -0.0083453264 0.001794692 6579300
-0.010399125 -0.0084189037 0.0022396925 6579300
-0.010291769 -0.0088838832 0.0013966806 6579300
-0.010996096 -0.0063800896 -0.00061559357 6579300
-0.011107273 -0.0062337662 -0.00017335282 6579300
-0.011294733 -0.0056893602 -0.00017592366 6579300
-0.01019367 -0.0091107348 0.001911377 6579300
-0.0095453234 -0.01028259 0.0033285068 6579300
-0.010109407 -0.0092507023 0.0023061351 6579300
-0.0098640593 -0.0099498862 0.0023446791 6579300
-0.0092943665 -0.010866697 0.0034390718 6579300
-0.010495166 -0.0082755918 0.00095358741 6579300
-0.010539303 -0.0080902968 0.00055678224 6579300
-0.010630743 -0.0076477071 -9.5817661e-05 6579300
-0.010305083 -0.0088038342 0.00072915008 6579300
-0.010176899 -0.0092215426 0.0011305809 6579300
-0.010479907 -0.0081219925 1.9723771e-05 6579300
-0.0094217779 -0.011204395 0.0024414198 6579300
-0.010020684 -0.0096299816 0.00067619095 6579300
-0.0098018683 -0.010316304 0.0013079479 6579300
-0.0096593853 -0.010740611 0.0014299576 6579300
-0.01019879 -0.0087441513 -0.00049466186 6579300
-0.009346351 -0.011573709 0.0019694911 6579300
-0.010281403 -0.0083146002 -0.00087592844 6579300
-0.0094746016 -0.011283462 0.0011943291 6579300
-0.010123841 -0.0087514287 -0.0009362768 6579300
-0.010018725 -0.0092783328 -0.00046251246 6579300
-0.0085817082 -0.013293129 0.0029711451 6579300
-0.0091147088 -0.012154137 0.0022802234 6579300
-0.0089940708 -0.0125598 0.0020918876 6579300
-0.0091607133 -0.012190583 0.0015472806 6579300
-0.0092869094 -0.0118244 0.0011962561 6579300
-0.0096045258 -0.010826788 0.00055437034 6579300
-0.0083920928 -0.013880316 0.0029003767 6579300
-0.0097504491 -0.010240688 3.9485321e-06 6579300
-0.0097037768 -0.010098269 -0.00065724779 6579300
-0.0092814146 -0.011388175 -0.00052813388 6579300
-0.0093586287 -0.011586921 0.00077580882 6579300
-0.0094204759 -0.011140158 -0.00017522355 6579300
-0.0095588043 -0.010684274 -0.00030995155 6579300
-0.0085823881 -0.01366682 0.0023613283 6579300
-0.0085923215 -0.013799516 0.0018643211 6579300
-0.0083928825 -0.01413412 0.0025311601 6579300
-0.0091766724 -0.012043466 0.00039319342 6579300
-0.0092524774 -0.011634025 -0.00014865628 6579300
-0.0090236338 -0.012449435 0.00028917842 6579300
-0.008309531 -0.014485002 0.0022970522 6579300
-0.0079526985 -0.015236338 0.0027527213 6579300
-0.0088110585 -0.013220921 0.0010388148 6579300
-0.0093940096 -0.010879646 -0.00088170328 6579300
-0.0084680002 -0.014192555 0.0017034753 6579300
-0.00857295 -0.013921455 0.0013749766 6579300
-0.0086726146 -0.013589161 0.00073998928 6579300
-0.0091813812 -0.011276135 -0.0012463507 6579300
-0.0090110358 -0.011531836 -0.0015775905 6579300
-0.0082590124 -0.014837723 0.0013354588 6579300
-0.0084260199 -0.014355444 0.0012505922 6579300
-0.00771695 -0.015871836 0.0027744023 6579300
-0.0088872537 -0.012626569 -0.00030811669 6579300
-0.0087167732 -0.01321365 -9.0302085e-05 6579300
-0.0081344182 -0.015164687 0.0016853745 6579300
-0.0087202322 -0.01259672 -0.0012314644 6579300
-0.0087494301 -0.012796259 -0.00077732961 6579300
-0.0085453391 -0.013749755 -6.5257163e-06 6579300
-0.0085471096 -0.013554557 -0.00044681973 6579300
-0.0084950365 -0.014015537 0.00034702345 6579300
-0.0075859088 -0.016661724 0.0020850874 6579300
-0.0082276585 -0.01467131 -1.2636257e-05 6579300
-0.0080791684 -0.014904326 -0.00044726502 6579300
-0.0083113816 -0.014293615 -0.00032841373 6579300
-0.0076390151 -0.01662527 0.0016164784 6579300
-0.008089547 -0.015308498 0.0008888446 6579300
-0.0074076243 -0.017112602 0.0022416068 6579300
-0.0072418805 -0.017606895 0.002192989 6579300
-0.0084260283 -0.013463975 -0.0011971833 6579300
-0.0077718343 -0.016262984 0.001288772 6579300
-0.0085490411 -0.013002288 -0.0013612079 6579300
-0.0082535567 -0.013636265 -0.0016476144 6579300
-0.0080232741 -0.014029278 -0.0019576477 6579300
-0.0082806461 -0.013888411 -0.0011722731 6579300
-0.0078918533 -0.015739933 0.00027314815 6579300
-0.0077269608 -0.016142676 5.1610758e-05 6579300
-0.0076915659 -0.016444467 0.00071945565 6579300
-0.0076145651 -0.016561288 0.00031371432 6579300
-0.0074997274 -0.017050177 0.0011602704 6579300
-0.0075293249 -0.016883103 0.00061904406 6579300
-0.0073912246 -0.017339747 0.00087959069 6579300
-0.0077983215 -0.014934469 -0.0016231781 6579300
-0.0078644184 -0.015413541 -0.00064050499 6579300
-0.0076586222 -0.015916631 -0.00077714666 6579300
-0.007845792 -0.015659122 -0.00027514971 6579300
-0.0078462837 -0.015173162 -0.0011162857 6579300
-0.0075977431 -0.015551247 -0.0015621192 6579300
-0.0068752253 -0.018751878 0.001989681 6579300
-0.0074645416 -0.016272787 -0.0010798411 6579300
-0.0075714928 -0.016380418 -0.00039407919 6579300
-0.0074802674 -0.016770842 -0.00014172228 6579300
-0.0070862323 -0.017618908 -0.00066284131 6579300
-0.0072563933 -0.017383292 -0.00022331337 6579300
-0.0069122971 -0.018760391 0.0012334113 6579300
-0.0071117994 -0.017881868 -3.6439324e-05 6579300
-0.006528907 -0.019849952 0.0016172254 6579300
-0.0072051561 -0.016388297 -0.0018828943 6579300
-0.0069556488 -0.016728058 -0.0022700434 6579300
-0.0066724359 -0.019320305 0.00045969302 6579300
-0.0065349685 -0.019736864 0.00052895158 6579300
-0.0069116699 -0.017396403 -0.0016494946 6579300
-0.0067972159 -0.018752841 -9.8246615e-05 6579300
-0.006692444 -0.018052414 -0.0015990927 6579300
-0.0067682359 -0.01842601 -0.00082474935 6579300
-0.0064667431 -0.018838532 -0.0014101955 6579300
-0.0063430485 -0.019807963 -0.00054458622 6579300
-0.0062224986 -0.018487699 -0.0025102219 6579300
-0.006042813 -0.019020187 -0.0024698041 6579300
-0.0058798254 -0.019692337 -0.002248348 6579300
-0.0056688776 -0.019961057 -0.0025313678 6579300
-0.012627862 -1.7809409e-05 0.0051054461 6579300
-0.012563571 -0.00040341003 0.004920559 6579300
-0.012168619 -0.00095159945 0.0052759317 6579300
-0.012804293 -0.00048446975 0.0041295113 6579300
-0.012212268 -0.0013822675 0.0048774923 6579300
-0.012422396 -0.001218848 0.0045006294 6579300
-0.01256148 -0.0012186464 0.004060172 6579300
-0.012753345 -0.00087111304 0.0038149431 6579300
-0.012924838 -0.00070738653 0.0032855789 6579300
-0.01187952 -0.0022211256 0.0049001439 6579300
-0.012315603 -0.0016498313 0.0043638749 6579300
-0.01175891 -0.002732168 0.0047406009 6579300
-0.011952361 -0.0027030802 0.0043010144 6579300
-0.012191243 -0.0029619974 0.0029687169 6579300
-0.012132249 -0.0028724642 0.0034430255 6579300
-0.012798418 -0.0015333068 0.0017769617 6579300
-0.01264709 -0.0019854619 0.0017073259 6579300
-0.012839941 -0.001305403 0.0023827995 6579300
-0.012678935 -0.0018154456 0.0021978344 6579300
-0.011497483 -0.0045156181 0.0036658528 6579300
-0.011234474 -0.0050352872 0.0039273179 6579300
-0.011088668 -0.0055604936 0.0038006862 6579300
-0.011821152 -0.0042613684 0.0023629353 6579300
-0.01158719 -0.0050030649 0.0021059678 6579300
-0.011339325 -0.0054037166 0.0029767214 6579300
-0.01056203 -0.0072377422 0.0035528722 6579300
-0.010263567 -0.0077786725 0.0038551609 6579300
-0.011822052 -0.0043824823 0.00081201701 6579300
-0.011590833 -0.0050472426 0.00085883419 6579300
-0.011685567 -0.004728192 0.00051338837 6579300
-0.010370899 -0.0079438211 0.0033516653 6579300
-0.010198785 -0.0085333064 0.003199856 6579300
-0.010772325 -0.0074204281 0.0019171813 6579300
-0.010972667 -0.0068462277 0.0018747516 6579300
-0.010509504 -0.0080513125 0.0024192762 6579300
-0.01065127 -0.0076317512 0.0024176652 6579300
-0.010003192 -0.0093960427 0.0027014287 6579300
-0.0098380577 -0.0098187635 0.0028060745 6579300
-0.0098549081 -0.0095153041 0.0032051841 6579300
-0.010751988 -0.0074539511 0.00051230326 6579300
-0.01095827 -0.0066974927 -6.4148298e-05 6579300
-0.0095922155 -0.010579131 0.0026962466 6579300
-0.010116484 -0.0093915891 0.0015130681 6579300
-0.0099472478 -0.0098883295 0.001078742 6579300
-0.0099514797 -0.0098522864 0.0017212462 6579300
-0.0090824049 -0.012043275 0.0027243567 6579300
-0.0092326822 -0.011662189 0.0026314941 6579300
-0.0097531872 -0.010412645 0.0018559902 6579300
-0.0095914612 -0.010822342 0.0021077166 6579300
-0.01013629 -0.0091909738 0.00024703518 6579300
-0.0098966062 -0.0097638303 -0.00014179418 6579300
-0.0088194422 -0.012963193 0.0023914257 6579300
-0.0088334503 -0.012722084 0.0027830177 6579300
-0.009102785 -0.012370776 0.0011451272 6579300
-0.0089765685 -0.012716628 0.00088111783 6579300
-0.0089972001 -0.012646222 0.0016627981 6579300
-0.0088215955 -0.013124137 0.0018842155 6579300
-0.0088648368 -0.013062171 0.0014210334 6579300
-0.0090652816 -0.012105528 -0.00033149173 6579300
-0.0090964111 -0.01179875 -0.00076335034 6579300
-0.0083056986 -0.01465785 0.0017748666 6579300
-0.008085439 -0.015178159 0.0021941385 6579300
-0.0079100775 -0.015641883 0.002306775 6579300
-0.0077885534 -0.016049981 0.00215791 6579300
-0.0083608115 -0.014503023 0.00081132032 6579300
-0.0079949489 -0.015600599 0.0014142244 6579300
-0.0079335188 -0.015760902 0.00090522814 6579300
-0.0081319949 -0.014566813 -0.0007821141 6579300
-0.0083378889 -0.013991536 -0.00073908654 6579300
-0.0072591193 -0.017738914 0.0013951012 6579300
-0.0070982846 -0.0181827 0.0015483676 6579300
-0.0069963047 -0.018329099 0.0021575559 6579300
-0.0074251979 -0.017061867 0.00018064193 6579300
-0.0072115995 -0.017815992 0.00062573561 6579300
-0.006995318 -0.018323408 0.00022364325 6579300
-0.0068509988 -0.018817158 0.00048586304 6579300
-0.0070608808 -0.018323328 0.0010952501 6579300
-0.0067712981 -0.01913555 0.00090900541 6579300
-0.0067079649 -0.019307375 0.0017291651 6579300
-0.0069621522 -0.017672537 -0.0011167371 6579300
-0.0073258397 -0.016791377 -0.00089696684 6579300
-0.0071402499 -0.016878748 -0.0015024429 6579300
-0.0063160262 -0.018878631 -0.0018486498 6579300
-0.0061340374 -0.019228691 -0.0020075468 6579300
-0.0059622955 -0.019893439 -0.0018069627 6579300
-0.012088254 -0.0018431041 0.0047607739 6579300
-0.010011343 -0.0089712059 0.0033384357 6579300
-0.0088943103 -0.012342884 0.0030567108 6579300
-0.0091658607 -0.011442659 0.0032158867 6579300
-0.0063722678 -0.020154431 0.0020755297 6579300
-0.0065091732 -0.019182755 -0.00078116445 6579300
-0.0060308799 -0.020188753 -0.0012488505 6579300
-0.006235247 -0.019649666 -0.0012087247 6579300
-0.0062335432 -0.01936966 -0.0015485967 6579300
-0.003244279 -0.0020037026 0.037652779 6579300
-0.0030018748 -0.0015776535 0.037708048 6579300
-0.0034620543 -0.0010248593 0.037561771 6579300
-0.002634363 -0.00033265087 0.037773643 6579300
-0.0027568922 -0.0010532137 0.037761051 6579300
-0.0031856715 -0.0025366375 0.037685458 6579300
-0.0036881641 -0.0020783818 0.037525587 6579300
-0.0042008795 -0.0014231352 0.037357129 6579300
-0.0040039541 -0.005097013 0.037495501 6579300
-0.0040897657 -0.0038642443 0.037427396 6579300
-0.004229805 -0.0046549058 0.037406124 6579300
-0.0045232032 -0.0036989399 0.037277777 6579300
-0.0036915063 -0.0033822036 0.037544541 6579300
-0.0050323112 -0.0018678849 0.037106238 6579300
-0.0049404483 -0.0024868755 0.037137341 6579300
-0.0040517515 -0.0024170438 0.037414938 6579300
-0.0044275522 -0.0019448914 0.037294108 6579300
-0.0039328281 -0.0029441828 0.037455026 6579300
-0.0044117565 -0.0030900834 0.037304703 6579300
-0.003621767 -0.0026839012 0.037551846 6579300
-0.0053388891 -0.0037725447 0.037002642 6579300
-0.0053989515 -0.0031975384 0.036986474 6579300
-0.0050646542 -0.0028849419 0.037099887 6579300
-0.0065734158 -0.0031025195 0.036604777 6579300
-0.0057094013 -0.0035978048 0.036882464 6579300
-0.0054928022 -0.002714532 0.036958776 6579300
-0.005458876 -0.0020223388 0.036974411 6579300
-0.0060011321 -0.0032429455 0.03678995 6579300
-0.0059461724 -0.0026328617 0.036811881 6579300
-0.0050604306 -0.0042756926 0.037104562 6579300
-0.0046441271 -0.0041657602 0.037248768 6579300
-0.0072710644 -0.0042614709 0.0363249 6579300
-0.0068079289 -0.0034782314 0.036516711 6579300
-0.0067063835 -0.0047636838 0.036510464 6579300
-0.0071413857 -0.0048612035 0.036351457 6579300
-0.0069073918 -0.0040151891 0.036463294 6579300
-0.007453966 -0.0052185617 0.036227673 6579300
-0.0064845169 -0.0043563331 0.036603417 6579300
-0.0059043844 -0.0042663892 0.036805693 6579300
-0.0045722565 -0.0058838427 0.037299994 6579300
-0.0048270472 -0.0063023875 0.037215997 6579300
-0.0042804014 -0.0064518019 0.03743089 6579300
-0.0046521649 -0.0067725913 0.037298732 6579300
-0.0052254256 -0.0066177747 0.037073437 6579300
-0.005738616 -0.0048259581 0.036864199 6579300
-0.0044675777 -0.0053567197 0.037330359 6579300
-0.0053549679 -0.0055433558 0.037006423 6579300
-0.0053224922 -0.0048154341 0.037014097 6579300
-0.0047521563 -0.0049397657 0.037223712 6579300
-0.0049060979 -0.0054474473 0.037170272 6579300
-0.0059457482 -0.0054838378 0.036789477 6579300
-0.0058749276 -0.0062488271 0.03681203 6579300
-0.0055046487 -0.0060993182 0.036955185 6579300
-0.0055975658 -0.0070428215 0.036934014 6579300
-0.0051780241 -0.0071922429 0.037107144 6579300
-0.0059290468 -0.0067544528 0.036793109 6579300
-0.006803738 -0.0053032842 0.036466148 6579300
-0.006365208 -0.0054992735 0.036629833 6579300
-0.0062791309 -0.0064018518 0.036656819 6579300
-0.0064952075 -0.0059295953 0.036578402 6579300
-0.0063206782 -0.0049315728 0.03664995 6579300
-0.0075607873 -0.007276223 0.036126412 6579300
-0.0078385165 -0.0066853203 0.036032069 6579300
-0.0070961625 -0.0072296872 0.036318388 6579300
-0.0074344827 -0.0068148598 0.036193404 6579300
-0.0079330709 -0.0074451105 0.035968244 6579300
-0.0069870842 -0.0062636551 0.036388241 6579300
-0.0068269596 -0.0067825648 0.036438387 6579300
-0.0072925016 -0.005944632 0.036276709 6579300
-0.0055686482 -0.0090346988 0.036975753 6579300
-0.0051736562 -0.0096413149 0.037168778 6579300
-0.0053639677 -0.0083071049 0.037042297 6579300
-0.0051681949 -0.0078048781 0.037120994 6579300
-0.0055392832 -0.0075295307 0.036963999 6579300
-0.0058039837 -0.0085748453 0.03685993 6579300
-0.0059924247 -0.0075023323 0.036774255 6579300
-0.0062368345 -0.0071352581 0.036670439 6579300
-0.0065254043 -0.0075036832 0.036554586 6579300
-0.0063302713 -0.0079682879 0.036637563 6579300
-0.006214398 -0.0083940411 0.03668781 6579300
-0.0058012865 -0.0097417943 0.036896951 6579300
-0.0061664567 -0.0093865227 0.036721218 6579300
-0.0056875935 -0.010175054 0.036959685 6579300
-0.0066262321 -0.0094376709 0.036512356 6579300
-0.0079947421 -0.0082791522 0.035924226 6579300
-0.0072669243 -0.0084822755 0.036234654 6579300
-0.0071408045 -0.0078137703 0.036292404 6579300
-0.0075085694 -0.0081327716 0.036133174 6579300
-0.0066682505 -0.008446672 0.036492765 6579300
-0.006291002 -0.008839163 0.03665524 6579300
-0.0082762484 -0.010148433 0.035740022 6579300
-0.0081769191 -0.0086941794 0.03583451 6579300
-0.0087944018 -0.010391865 0.035491928 6579300
-0.0082199639 -0.009441426 0.035789661 6579300
-0.0077471109 -0.0093167704 0.036011953 6579300
-0.007502499 -0.0089772455 0.036128264 6579300
-0.0071700043 -0.0092672575 0.036268514 6579300
-0.0059120753 -0.011099964 0.036868215 6579300
-0.0058881966 -0.012297803 0.036921445 6579300
-0.0065330914 -0.01171615 0.036584999 6579300
-0.0062775435 -0.011351633 0.036697693 6579300
-0.0066513 -0.010440686 0.036508784 6579300
-0.0062914728 -0.01003982 0.036675904 6579300
-0.006248747 -0.010636243 0.036700021 6579300
-0.0070435968 -0.01050201 0.036326077 6579300
-0.0068216808 -0.011004642 0.03643221 6579300
-0.0070474055 -0.0097427163 0.036319166 6579300
-0.0064850659 -0.01238724 0.036630038 6579300
-0.0063806158 -0.012841412 0.036694974 6579300
-0.0073816539 -0.011990452 0.036161274 6579300
-0.0070230607 -0.012186105 0.036349691 6579300
-0.00772192 -0.010804782 0.035998762 6579300
-0.0078986129 -0.010362002 0.035916138 6579300
-0.0078902906 -0.011227301 0.035915248 6579300
-0.0077151265 -0.0099444855 0.036006905 6579300
-0.0077030314 -0.01166359 0.036003001 6579300
-0.0082505653 -0.010963748 0.035743162 6579300
-0.0072071129 -0.010904879 0.036249097 6579300
-0.006986856 -0.011553861 0.036353383 6579300
-0.0074026817 -0.010252239 0.036156945 6579300
-0.0088832108 -0.011734711 0.035409462 6579300
-0.0083652027 -0.012299367 0.035658494 6579300
-0.00898505 -0.012421655 0.035333212 6579300
-0.008637825 -0.012606096 0.035506777 6579300
-0.0091406684 -0.013021292 0.035232089 6579300
-0.0084098428 -0.011704251 0.035653159 6579300
-0.0085534165 -0.011303929 0.035591573 6579300
-0.0065325666 -0.013732028 0.036630504 6579300
-0.0065831007 -0.014320992 0.036623605 6579300
-0.0071208291 -0.014664899 0.036342021 6579300
-0.0069090808 -0.015066818 0.036471792 6579300
-0.0072405194 -0.014250211 0.03626208 6579300
-0.0074402606 -0.013004354 0.036138032 6579300
-0.0072543267 -0.01374584 0.036240883 6579300
-0.007484653 -0.012453583 0.03611102 6579300
-0.0067332466 -0.01317547 0.036511727 6579300
-0.0070100459 -0.012802525 0.036363412 6579300
-0.0078003607 -0.012153406 0.035945445 6579300
-0.0074141007 -0.014995973 0.036185369 6579300
-0.00793136 -0.014424302 0.035876952 6579300
-0.0076125367 -0.014153774 0.036051169 6579300
-0.0091884071 -0.013569039 0.03520228 6579300
-0.0087068919 -0.01347568 0.035461534 6579300
-0.0082994085 -0.01389982 0.035677869 6579300
-0.0081499312 -0.013429966 0.035761286 6579300
-0.0077474792 -0.013440823 0.035981152 6579300
-0.007963228 -0.01294428 0.03586638 6579300
-0.0098921573 -0.015041803 0.034753483 6579300
-0.0095229 -0.015371921 0.034953985 6579300
-0.0094541889 -0.014748153 0.035015676 6579300
-0.0094070239 -0.014274249 0.035059649 6579300
-0.0090865567 -0.014885759 0.035222091 6579300
-0.0095871724 -0.013464277 0.034984924 6579300
-0.0083989259 -0.014489628 0.035617098 6579300
-0.0089966152 -0.013988183 0.035299454 6579300
-0.0075244741 -0.016707126 0.036150765 6579300
-0.0077766147 -0.016362596 0.035986442 6579300
-0.007309624 -0.017046565 0.03629243 6579300
-0.0079098055 -0.015441138 0.035900671 6579300
-0.0070903357 -0.015548947 0.036379915 6579300
-0.0074877259 -0.015410368 0.03614698 6579300
-0.008081302 -0.014820837 0.035796702 6579300
-0.007701254 -0.015941584 0.036025543 6579300
-0.0085537937 -0.015104726 0.035526562 6579300
-0.0091220951 -0.016511891 0.035182498 6579300
-0.0094712703 -0.016246874 0.03497671 6579300
-0.0091590267 -0.015592597 0.035166916 6579300
-0.007737794 -0.017344784 0.036043201 6579300
-0.0080025345 -0.016740689 0.035862871 6579300
-0.0083238045 -0.017067436 0.035670824 6579300
-0.0087609775 -0.015900379 0.035401694 6579300
-0.008264781 -0.016167529 0.035698779 6579300
-0.010063541 -0.017027812 0.034587473 6579300
-0.010466169 -0.017455891 0.034318421 6579300
-0.0097090835 -0.017426411 0.034795098 6579300
-0.0099732 -0.01653659 0.034662738 6579300
-0.010113302 -0.015945887 0.0345966 6579300
-0.009580058 -0.016756408 0.034899455 6579300
-0.0081987362 -0.019061292 0.035783052 6579300
-0.0081611956 -0.018577648 0.035790484 6579300
-0.007677841 -0.018483583 0.036104541 6579300
-0.0078726271 -0.019759957 0.036022082 6579300
-0.0084523978 -0.017571356 0.035594407 6579300
-0.0085265394 -0.018361017 0.035551444 6579300
-0.0080292122 -0.018067898 0.035867117 6579300
-0.0088295117 -0.017123817 0.035352271 6579300
-0.0090233702 -0.017757852 0.035234243 6579300
-0.0086726388 -0.019209305 0.035471611 6579300
-0.0083484808 -0.019611463 0.035701647 6579300
-0.010320771 -0.018238829 0.034392104 6579300
-0.010040713 -0.017730337 0.034577031 6579300
-0.0094238268 -0.018028907 0.034973182 6579300
-0.0092418166 -0.018394593 0.035088748 6579300
-0.0093107689 -0.017462317 0.035051394 6579300
-0.0088831875 -0.018653374 0.035322029 6579300
-0.010698344 -0.018365566 0.034135442 6579300
-0.010582916 -0.019780355 0.034158267 6579300
-0.010489059 -0.018755123 0.034262862 6579300
-0.010265156 -0.019269276 0.03439533 6579300
-0.0084200781 -0.020096866 0.035660181 6579300
-0.00914435 -0.020029565 0.035155863 6579300
-0.010094937 -0.019879958 0.034494795 6579300
-0.0093621807 -0.019135099 0.035002626 6579300
-0.0097346306 -0.018841995 0.034764357 6579300
-0.0087862676 -0.019858722 0.03540713 6579300
-0.0090083815 -0.019440575 0.035248701 6579300
-0.0044313171 -0.00042996157 0.037275642 6579300
-0.0053164461 -0.00055958948 0.037035752 6579300
-0.0049069719 -0.00084314571 0.037149984 6579300
-0.0038145746 -0.00070749968 0.037453514 6579300
-0.0032109779 -0.00024096463 0.037609819 6579300
-0.0050423737 -0.0012493887 0.037106909 6579300
-0.0054594143 -0.0010840127 0.036987804 6579300
-0.0054490329 -0.0015503652 0.036983527 6579300
-0.0059351977 -0.0017008216 0.036834445 6579300
-0.0068215863 -0.002609564 0.036533233 6579300
-0.0064007067 -0.00079373526 0.036722492 6579300
-0.0065713888 -0.0015081629 0.036646444 6579300
-0.0067029996 -0.0019381291 0.036591668 6579300
-0.0060037263 -0.0021467991 0.036799382 6579300
-0.0064320513 -0.0023738083 0.036660831 6579300
-0.006176373 -0.0013314153 0.0367743 6579300
-0.0057599992 -0.000748349 0.036908776 6579300
-0.010210963 -0.0019014516 0.0073916656 6579300
-0.010360177 -0.00093287742 0.0076637357 6579300
-0.010415874 -0.00036874978 0.0078642182 6579300
-0.010627735 -0.00076237001 0.0073917191 6579300
-0.010969699 -0.0013082717 0.0066769263 6579300
-0.010616465 -0.001426633 0.0070780893 6579300
-0.011380791 -0.0021100878 0.0056777699 6579300
-0.010923706 -0.0017281654 0.0065116789 6579300
-0.011146301 -0.0019893099 0.0060641784 6579300
-0.011955902 -0.00010937185 0.006040005 6579300
-0.011552544 -0.00062886119 0.0062748902 6579300
-0.01226223 -5.2166881e-05 0.005683146 6579300
-0.011650275 -0.0021414412 0.0052964217 6579300
-0.011957034 -0.0013938688 0.0053213136 6579300
-0.011693475 -0.0012757083 0.00573088 6579300
-0.012147871 -0.00048539627 0.0055880775 6579300
-0.011804575 -0.00067366019 0.0059276419 6579300
-0.010986217 -0.0006645057 0.0069775237 6579300
-0.011506464 -0.001713994 0.0057292883 6579300
-0.011353081 -0.0012614491 0.0061893626 6579300
-0.009723885 -0.0033833724 0.0073136589 6579300
-0.0091964826 -0.0052505098 0.0071302503 6579300
-0.0096155023 -0.0039937678 0.0071588359 6579300
-0.0097224852 -0.0043268059 0.0068282634 6579300
-0.0094459262 -0.0048718271 0.0069563701 6579300
-0.0099733081 -0.0034840065 0.0068967636 6579300
-0.010157601 -0.0038757771 0.0064285425 6579300
-0.011056967 -0.0041826311 0.004936913 6579300
-0.011334791 -0.003161103 0.0051515284 6579300
-0.011053214 -0.0034599665 0.0053744572 6579300
-0.011570227 -0.0026421144 0.0051260628 6579300
-0.010781095 -0.0039754254 0.0054592313 6579300
-0.010075312 -0.0026761296 0.007180471 6579300
-0.010540689 -0.0019900561 0.0068970043 6579300
-0.010369392 -0.0029431945 0.0066231336 6579300
-0.010658976 -0.0025319699 0.0064382749 6579300
-0.010932271 -0.0028249151 0.0059020687 6579300
-0.01112581 -0.0030093361 0.005536763 6579300
-0.010841458 -0.0033086371 0.0057633584 6579300
-0.010494934 -0.0035915005 0.0060993461 6579300
-0.0097535131 -0.0049378253 0.0064502871 6579300
-0.0096498765 -0.0059161019 0.006051573 6579300
-0.0097497115 -0.0053670863 0.0062107537 6579300
-0.009331706 -0.0056097438 0.0067197881 6579300
-0.0090124737 -0.0092474548 0.0051003909 6579300
-0.009273625 -0.0098922066 0.0041900799 6579300
-0.0090424372 -0.0097703906 0.0046990998 6579300
-0.0081315609 -0.011143829 0.0055004205 6579300
-0.0082768956 -0.012255969 0.0044425018 6579300
-0.0083270771 -0.0125597 0.0041189659 6579300
-0.0083709555 -0.012901503 0.0037809627 6579300
-0.0079901991 -0.013031766 0.0044754934 6579300
-0.0075237183 -0.013800656 0.0049033314 6579300
-0.007230605 -0.01394375 0.0054337285 6579300
-0.0075895628 -0.015295329 0.0035791637 6579300
-0.0072940006 -0.015835928 0.0038362539 6579300
-0.007378981 -0.01531734 0.0040536225 6579300
-0.0063152811 -0.017368859 0.0049718181 6579300
-0.0059284475 -0.018003518 0.0054564159 6579300
-0.0061206678 -0.017548474 0.0053270785 6579300
-0.0065063327 -0.017288823 0.0045462213 6579300
-0.0066946778 -0.016581792 0.0046688179 6579300
-0.0064805406 -0.016946258 0.0048935302 6579300
-0.0067497953 -0.017023677 0.00415463 6579300
-0.0056873006 -0.019767903 0.0045752446 6579300
-0.0056312084 -0.019129103 0.005309118 6579300
-0.0055539813 -0.019716902 0.0050072651 6579300
-0.0061023538 -0.019987375 0.0031169411 6579300
-0.0058048475 -0.019875735 0.0041178209 6579300
-0.0060948045 -0.018406896 0.0046675485 6579300
-0.0061291736 -0.018992936 0.0040322281 6579300
-0.006298996 -0.01846941 0.0040523876 6579300
-0.0062455423 -0.017922221 0.0047039064 6579300
-0.0058245398 -0.018750103 0.0050911759 6579300
-0.0058128741 -0.019178374 0.0047399113 6579300
-0.0060620205 -0.019639697 0.0035904273 6579300
-0.010476752 -0.0061068716 0.0046405056 6579300
-0.010326136 -0.0072332122 0.004162916 6579300
-0.010710077 -0.0053014951 0.0047865072 6579300
-0.010495943 -0.0048023337 0.0053979345 6579300
-0.010860802 -0.0048721866 0.0048109689 6579300
-0.010446014 -0.0053389501 0.0051604826 6579300
-0.0098724505 -0.0059597595 0.0056822551 6579300
-0.0099962363 -0.0050847549 0.0059907851 6579300
-0.010191096 -0.0056373379 0.0053745406 6579300
-0.010347473 -0.0044732159 0.0058118841 6579300
-0.01008133 -0.0046536224 0.0061063804 6579300
-0.010242235 -0.0051274733 0.0055891001 6579300
-0.010335299 -0.0041048815 0.0060445131 6579300
-0.0099744396 -0.0068861144 0.0049490565 6579300
-0.0097756702 -0.0064370213 0.0055568684 6579300
-0.010232966 -0.0067379568 0.0046241577 6579300
-0.010189175 -0.006333489 0.0049523483 6579300
-0.0089090159 -0.0070703621 0.0065907459 6579300
-0.0089022685 -0.0066414825 0.0068407701 6579300
-0.0094808536 -0.0063424571 0.0060754251 6579300
-0.0093905283 -0.0060133887 0.0064007989 6579300
-0.0091714151 -0.0065053324 0.0064749476 6579300
-0.0092837801 -0.006904081 0.0060760658 6579300
-0.0086181909 -0.008469685 0.0062663495 6579300
-0.0088277673 -0.0085988017 0.0058240504 6579300
-0.0086940043 -0.0079668425 0.0064425156 6579300
-0.0097579407 -0.0082900431 0.0044240481 6579300
-0.0097655486 -0.0088699898 0.0040169568 6579300
-0.0095774364 -0.0087498846 0.0044227759 6579300
-0.0096830809 -0.0093118334 0.0038589376 6579300
-0.01005334 -0.0081455456 0.0040130643 6579300
-0.0095009357 -0.0099482238 0.0037405579 6579300
-0.009225524 -0.0092967302 0.0046819276 6579300
-0.010114738 -0.0076290285 0.0042537539 6579300
-0.0096946256 -0.0078276405 0.0048234533 6579300
-0.0099276509 -0.0074350387 0.0046831495 6579300
-0.009512322 -0.0076556499 0.0052348101 6579300
-0.0095297247 -0.0071133063 0.0055438853 6579300
-0.0091125332 -0.0073279482 0.0061094742 6579300
-0.0092293471 -0.0078887884 0.0055674785 6579300
-0.0093174288 -0.0082140546 0.0052189697 6579300
-0.0091279326 -0.008769894 0.0052026226 6579300
-0.0094694505 -0.0084714023 0.0048029814 6579300
-0.0083583454 -0.0098767793 0.0058821249 6579300
-0.008234811 -0.0096101286 0.0062715267 6579300
-0.0080105374 -0.010515178 0.006139989 6579300
-0.0080632847 -0.010116177 0.0062832804 6579300
-0.0084781526 -0.0092147477 0.0060665431 6579300
-0.0086719934 -0.0095718289 0.0055119703 6579300
-0.0087096188 -0.0090716351 0.0057452046 6579300
-0.0085281432 -0.01007321 0.0054511735 6579300
-0.0086306576 -0.010367529 0.0050673462 6579300
-0.0081260735 -0.010746669 0.0057771746 6579300
-0.0089873532 -0.011240055 0.0037781994 6579300
-0.0092929164 -0.010474204 0.0037565718 6579300
-0.0090679415 -0.010779754 0.0039633252 6579300
-0.0089198863 -0.010545856 0.0044083972 6579300
-0.0084508266 -0.011790479 0.0044332524 6579300
-0.0086455066 -0.011996037 0.0038861663 6579300
-0.0087041371 -0.012289789 0.003547895 6579300
-0.0087582814 -0.011581579 0.0039685345 6579300
-0.0086712167 -0.012692856 0.0033127468 6579300
-0.0084606232 -0.011115512 0.0048873206 6579300
-0.0087060863 -0.01094203 0.0045336247 6579300
-0.0071523162 -0.013551128 0.0058820224 6579300
-0.0073665539 -0.012537589 0.0061086793 6579300
-0.0076048821 -0.012334341 0.005747607 6579300
-0.0079433834 -0.011688905 0.0054989047 6579300
-0.0076955515 -0.012693436 0.0053288727 6579300
-0.00790965 -0.012302157 0.0051636929 6579300
-0.0080923392 -0.011868698 0.0050879605 6579300
-0.0077004819 -0.011871815 0.0058572376 6579300
-0.0075857989 -0.013251984 0.0051676333 6579300
-0.0073631639 -0.013335416 0.0055856751 6579300
-0.0078551015 -0.01282878 0.0049034161 6579300
-0.0083247516 -0.013452819 0.0034482765 6579300
-0.0081455959 -0.013157668 0.0040612286 6579300
-0.0080807591 -0.01359495 0.0038574408 6579300
-0.0078743557 -0.014953049 0.0032031995 6579300
-0.0075953449 -0.014538828 0.0041841073 6579300
-0.0076121972 -0.014859176 0.0038800316 6579300
-0.0079804789 -0.014244042 0.0035484831 6579300
-0.0078812549 -0.014006084 0.0039724708 6579300
-0.0077536204 -0.013751444 0.0044406396 6579300
-0.0066991653 -0.015741698 0.005316563 6579300
-0.0063921488 -0.016375747 0.0055730664 6579300
-0.0068210228 -0.015226418 0.0054101986 6579300
-0.0068485267 -0.014591257 0.0058160047 6579300
-0.0070536733 -0.01506903 0.0049989992 6579300
-0.0070806495 -0.014494388 0.0053570792 6579300
-0.0065494692 -0.016449589 0.0051380931 6579300
-0.0067320983 -0.016050557 0.0050043887 6579300
-0.0070260968 -0.016106872 0.0042450069 6579300
-0.0069801128 -0.01579001 0.0046115438 6579300
-0.0072912355 -0.015084072 0.0044469116 6579300
-0.007529906 -0.016368594 0.0027944534 6579300
-0.0073222397 -0.016938584 0.0027872159 6579300
-0.0073049921 -0.016507905 0.0032323059 6579300
-0.0072015743 -0.017389026 0.0026718287 6579300
-0.007442697 -0.015944496 0.0033910323 6579300
-0.007670335 -0.015634755 0.0031148263 6579300
-0.0069387057 -0.017030347 0.0036733691 6579300
-0.0068736579 -0.017822109 0.0031171103 6579300
-0.0069916635 -0.017373519 0.0032243223 6579300
-0.0067190006 -0.017455025 0.0038527732 6579300
-0.0066762092 -0.018980214 0.0025137789 6579300
-0.0065029017 -0.019574936 0.0023889318 6579300
-0.0064851162 -0.019098183 0.0029193845 6579300
-0.0064241108 -0.018906077 0.0032948554 6579300
-0.0062593417 -0.019479902 0.0031791385 6579300
-0.0063190451 -0.019920746 0.0025494765 6579300
-0.0065426012 -0.018447841 0.0034064807 6579300
-0.006473219 -0.01804683 0.0039671808 6579300
-0.0063041877 -0.00028662043 0.036859091 6579300
-0.0069970479 -0.0020507991 0.037165459 6579300
-0.006790821 -0.0013233655 0.037221555 6579300
-0.0070748283 -0.0015367598 0.037732869 6579300
-0.0065161148 -0.00057084032 0.037143636 6579300
-0.0069376305 -0.0010313852 0.037798833 6579300
-0.0074343467 -0.0018710736 0.038286362 6579300
