# .PCD v0.7 - Point Cloud Data file format
VERSION 0.7
FIELDS x y z rgb
SIZE 4 4 4 4
TYPE F F F U
COUNT 1 1 1 1
WIDTH 1056
HEIGHT 1
VIEWPOINT 0 0 0 1 0 0 0
POINTS 1056
DATA ascii
-0.019194378 0.0095161675 0.071995199 6579300
-0.018957997 0.0099772401 0.043400299 6579300
-0.018948959 0.0099948682 0.03744835 6579300
-0.018944457 0.01000365 0.06536115 6579300
-0.018926114 0.010039427 0.07808239 6579300
-0.01882048 0.010245475 0.052025713 6579300
-0.018903771 0.010083009 0.061781295 6579300
-0.019053578 0.0097908014 0.070614897 6579300
-0.019023744 0.0098489942 0.082285158 6579300
-0.019157995 0.0095871352 0.076135568 6579300
-0.018696113 0.010461204 0.05478555 6579300
-0.018455561 0.010877858 0.0017686333 6579300
-0.018749146 0.010369346 0.0098824855 6579300
-0.018727591 0.01040668 0.012642161 6579300
-0.018685257 0.010480004 0.016375998 6579300
-0.018540379 0.010730946 0.031457815 6579300
-0.018753169 0.010362376 0.026534725 6579300
-0.01870336 0.01044865 0.048706107 6579300
-0.018552938 0.010709192 0.03253755 6579300
-0.018614028 0.010603379 0.0032470606 6579300
-0.018792817 0.010293704 0.017410496 6579300
-0.018590692 0.010643799 0.00023421764 6579300
-0.018762717 0.010345838 0.05032574 6579300
-0.018701661 0.010451591 0.028020989 6579300
-0.018583424 0.010656388 0.015264009 6579300
-0.018634314 0.010568244 0.039244223 6579300
-0.018421963 0.010936053 0.013615354 6579300
-0.018502587 0.010796403 0.0047016237 6579300
-0.018372191 0.011022259 0.0088643879 6579300
-0.018666141 0.010513116 0.072434336 6579300
-0.018464379 0.010862583 0.04509104 6579300
-0.01833445 0.01108763 0.019074868 6579300
-0.01842921 0.010923499 0.081147678 6579300
-0.018452296 0.010883512 0.036027793 6579300
-0.018303854 0.011140624 0.025671612 6579300
-0.018297374 0.011151847 0.0065354621 6579300
-0.018542817 0.010726722 0.082830682 6579300
-0.01832824 0.011098387 0.057013467 6579300
-0.018333295 0.011089629 0.029215645 6579300
-0.01867052 0.010505531 0.060744416 6579300
-0.01850025 0.010800453 0.074775442 6579300
-0.018291982 0.011161188 0.076209076 6579300
-0.018555414 0.010704903 0.055945575 6579300
-0.0183836 0.011002499 0.022606041 6579300
-0.018365199 0.01103437 0.065528251 6579300
-0.018603798 0.0106211 0.066622525 6579300
-0.018718593 0.010422266 0.07956247 6579300
-0.018326011 0.011102249 0.010574128 6579300
-0.018420098 0.010939282 0.052811287 6579300
-0.018502027 0.010797374 0.046212494 6579300
-0.018009098 0.011600494 0.054651901 6579300
-0.017711755 0.012060869 0.03403182 6579300
-0.017845951 0.011853092 0.058559582 6579300
-0.017968111 0.011663954 0.074020267 6579300
-0.017767515 0.011974536 0.031244088 6579300
-0.01796126 0.011674561 0.075136706 6579300
-0.018134724 0.011405988 0.072687805 6579300
-0.01772676 0.012037634 0.029300505 6579300
-0.017962113 0.01167324 0.071677215 6579300
-0.017801648 0.011921687 0.0825442 6579300
-0.017975368 0.011652718 0.063481942 6579300
-0.01801059 0.011598182 0.069969408 6579300
-0.01780789 0.011912022 0.052859031 6579300
-0.017919442 0.011739307 0.08147034 6579300
-0.017736426 0.012022669 0.022684125 6579300
-0.018009543 0.011599802 0.059633352 6579300
-0.017893814 0.011778987 0.068377309 6579300
-0.01809806 0.011462753 0.060740501 6579300
-0.017861452 0.011829091 0.079509132 6579300
-0.018021857 0.011580738 0.066617787 6579300
-0.017931817 0.011720148 0.033039521 6579300
-0.017806264 0.01191454 0.021269023 6579300
-0.017989967 0.011630113 0.0078713354 6579300
-0.018108988 0.011445834 0.034949906 6579300
-0.0177828 0.011950868 0.0088872677 6579300
-0.018227454 0.011262414 0.041979764 6579300
-0.018015923 0.011589926 0.005536275 6579300
-0.018067256 0.011510448 0.0041478653 6579300
-0.018148521 0.011384626 0.028022347 6579300
-0.018119842 0.011429031 0.012352166 6579300
-0.0180669 0.011511 0.030379932 6579300
-0.01810981 0.011444563 0.047614191 6579300
-0.017993974 0.01162391 0.040121537 6579300
-0.018283678 0.011175362 0.033898573 6579300
-0.018246192 0.011233402 0.078012094 6579300
-0.018179715 0.011336329 0.037240304 6579300
-0.018063009 0.011517025 0.020018144 6579300
-0.018055134 0.011529216 0.0027615684 6579300
-0.018050024 0.011537127 0.049809776 6579300
-0.018130222 0.011412959 0.043523513 6579300
-0.018072352 0.011502557 0.023878453 6579300
-0.017930511 0.011722168 0.016392943 6579300
-0.018265456 0.011203575 0.064459033 6579300
-0.018266523 0.011201925 0.01792396 6579300
-0.018036045 0.011558771 0.026740531 6579300
-0.01740008 0.012495425 0.0774405 6579300
-0.017152568 0.012839695 0.063903958 6579300
-0.017351313 0.012563256 0.055770118 6579300
-0.017168947 0.012816913 0.052682858 6579300
-0.017194845 0.012780892 0.060365994 6579300
-0.017145885 0.012848989 0.015845114 6579300
-0.017145524 0.012849493 0.0740306 6579300
-0.017546892 0.012291222 0.078560472 6579300
-0.017176667 0.012806174 0.04404569 6579300
-0.017146215 0.012848532 0.013902442 6579300
-0.017350448 0.01256446 0.071890667 6579300
-0.017255038 0.012697167 0.04825164 6579300
-0.017265907 0.012682049 0.083076492 6579300
-0.017295456 0.012640949 0.039616469 6579300
-0.017295839 0.012640417 0.06890171 6579300
-0.017228762 0.012733717 0.030549226 6579300
-0.017497163 0.012360392 0.066103637 6579300
-0.017303992 0.012629077 0.065069683 6579300
-0.017392373 0.012506146 0.080781065 6579300
-0.017301057 0.012633159 0.075189404 6579300
-0.017395297 0.012502079 0.024347598 6579300
-0.01727083 0.012675203 0.007887396 6579300
-0.017563462 0.012268174 0.041050844 6579300
-0.017566795 0.01226354 0.014855216 6579300
-0.017675726 0.012112026 0.042809531 6579300
-0.017326877 0.012597245 0.012717834 6579300
-0.017566705 0.012263663 0.046713408 6579300
-0.01734888 0.01256664 0.011323629 6579300
-0.017382454 0.012519941 0.020060349 6579300
-0.017393941 0.012503965 0.016889228 6579300
-0.017390391 0.012508903 0.036939632 6579300
-0.017612368 0.012200152 0.057326037 6579300
-0.017112538 0.012895374 0.0014067786 6579300
-0.017681917 0.012103414 0.0067523667 6579300
-0.017608969 0.012204879 0.061311021 6579300
-0.017669449 0.012120757 0.062506184 6579300
-0.017571473 0.012257032 0.045562807 6579300
-0.017625835 0.012181421 0.03853846 6579300
-0.017467791 0.012401246 0.050974768 6579300
-0.017326096 0.012598331 0.0041889767 6579300
-0.017297085 0.012638683 0.018993799 6579300
-0.017662123 0.012130945 0.035854135 6579300
-0.01725396 0.012698666 0.0096212747 6579300
-0.017461684 0.01240974 0.0029916898 6579300
-0.01661076 0.013528844 0.030229254 6579300
-0.016485091 0.01368643 0.057146933 6579300
-0.0164352 0.013748991 0.015839599 6579300
-0.016490381 0.013679796 0.059203885 6579300
-0.016598424 0.013544315 0.043153726 6579300
-0.01670802 0.013406885 0.054046705 6579300
-0.016733186 0.013375328 0.051771525 6579300
-0.017051861 0.012975724 0.081958465 6579300
-0.016517447 0.013645855 0.074535325 6579300
-0.016682139 0.01343934 0.045059334 6579300
-0.016932948 0.013124835 0.078563258 6579300
-0.016521567 0.01364069 0.031274062 6579300
-0.016705677 0.013409824 0.065601915 6579300
-0.016619027 0.013518481 0.042033274 6579300
-0.016662875 0.013463496 0.07583639 6579300
-0.016485866 0.013685456 0.082794257 6579300
-0.016569037 0.013581166 0.028152296 6579300
-0.016648287 0.013481788 0.072027616 6579300
-0.016701326 0.013415279 0.037103824 6579300
-0.01669384 0.013424667 0.055052005 6579300
-0.016462617 0.013714612 0.032300226 6579300
-0.016560992 0.013591252 0.067725763 6579300
-0.016660485 0.013466493 0.080559805 6579300
-0.016568495 0.013581843 0.069302998 6579300
-0.016798161 0.013293852 0.017686989 6579300
-0.016840022 0.013241359 0.0069344235 6579300
-0.016902708 0.013162755 0.034900341 6579300
-0.0167126 0.013401141 0.020423563 6579300
-0.017009081 0.013029366 0.062656142 6579300
-0.017048839 0.012979512 0.038126871 6579300
-0.017004263 0.01303541 0.066785425 6579300
-0.016768519 0.013331021 0.0089063458 6579300
-0.016868023 0.013206248 0.040858395 6579300
-0.01664542 0.013485382 0.0051229107 6579300
-0.016982079 0.013063227 0.070083901 6579300
-0.01700712 0.013031826 0.02273068 6579300
-0.016623281 0.013513145 0.013051075 6579300
-0.01687791 0.013193849 0.021545755 6579300
-0.016974157 0.013073161 0.025404738 6579300
-0.016738003 0.013369287 0.010915785 6579300
-0.017046968 0.012981859 0.033833478 6579300
-0.016623897 0.013512372 0.023895921 6579300
-0.016916957 0.013144887 0.026682086 6579300
-0.016835777 0.013246683 0.046097692 6579300
-0.016486675 0.013684443 0.0031218838 6579300
-0.016845658 0.013234294 0.049223926 6579300
-0.016269054 0.013939667 0.081801131 6579300
-0.016295109 0.013910143 0.073074363 6579300
-0.01592404 0.014330612 0.064332977 6579300
-0.016051142 0.014186589 0.078060783 6579300
-0.015830204 0.014436939 0.075189501 6579300
-0.016065625 0.014170178 0.050889995 6579300
-0.01590207 0.014355507 0.044252016 6579300
-0.016080124 0.014153748 0.076829948 6579300
-0.015756382 0.01452059 0.03333921 6579300
-0.015941653 0.014310653 0.060573511 6579300
-0.015978606 0.014268782 0.065668985 6579300
-0.015744038 0.014534578 0.030768881 6579300
-0.015727131 0.014553735 0.0090145497 6579300
-0.016038129 0.014201335 0.061768204 6579300
-0.01602437 0.014216926 0.053656593 6579300
-0.016142247 0.014083356 0.052521318 6579300
-0.015945738 0.014306025 0.072101898 6579300
-0.015759826 0.014516688 0.068978354 6579300
-0.015809378 0.014460539 0.062885843 6579300
-0.015867405 0.014394786 0.066937879 6579300
-0.016040921 0.01419817 0.039650232 6579300
-0.015794106 0.014477844 0.022167005 6579300
-0.016080989 0.014152769 0.080069229 6579300
-0.015939472 0.014313124 0.045705467 6579300
-0.016024914 0.014216308 0.012275346 6579300
-0.016222084 0.013992891 0.019293474 6579300
-0.016297292 0.013907669 0.014396477 6579300
-0.016333841 0.013866255 0.0011419321 6579300
-0.01623668 0.013976351 0.02908173 6579300
-0.016163608 0.01405915 0.034483995 6579300
-0.01635015 0.013847776 0.046876129 6579300
-0.015797187 0.014474352 0.0071255742 6579300
-0.015983064 0.014263731 0.005633988 6579300
-0.015867613 0.01439455 0.002574347 6579300
-0.016118811 0.01410991 0.03787867 6579300
-0.016082134 0.014151471 0.03601427 6579300
-0.015953954 0.014296715 0.0038693713 6579300
-0.016092259 0.014139997 0.02520917 6579300
-0.016061548 0.014174797 0.02104903 6579300
-0.016212311 0.014003964 0.0097328518 6579300
-0.0150071 0.015293986 0.017872926 6579300
-0.01527427 0.015020069 0.058420017 6579300
-0.015182107 0.015114559 0.060923617 6579300
-0.015007849 0.015293218 0.072357558 6579300
-0.015424141 0.014866414 0.082035214 6579300
-0.015206835 0.015089206 0.035381179 6579300
-0.015346237 0.014946285 0.0448195 6579300
-0.015060112 0.015239635 0.032554358 6579300
-0.014979186 0.015322604 0.062260892 6579300
-0.015476793 0.014812431 0.081004865 6579300
-0.01496268 0.015339528 0.065853126 6579300
-0.015002239 0.015298969 0.028615769 6579300
-0.015133814 0.015164072 0.021004608 6579300
-0.015393239 0.014898095 0.077769138 6579300
-0.015319664 0.014973529 0.059521969 6579300
-0.015082873 0.015216299 0.06917464 6579300
-0.014966246 0.015335872 0.037367251 6579300
-0.015406215 0.014884792 0.055797685 6579300
-0.01513885 0.015158909 0.051143318 6579300
-0.01505359 0.015246321 0.074951984 6579300
-0.015021196 0.015279534 0.080079302 6579300
-0.01523758 0.015057685 0.040426519 6579300
-0.015370625 0.01492128 0.024815373 6579300
-0.01566443 0.014620055 0.049117863 6579300
-0.015282191 0.015011947 0.019791251 6579300
-0.01570544 0.014578011 0.026118897 6579300
-0.015504133 0.014784401 0.041473247 6579300
-0.015390527 0.014900876 0.036392387 6579300
-0.015344026 0.014948551 0.038419232 6579300
-0.015340095 0.014952581 0.011839201 6579300
-0.015433758 0.014856553 0.046636574 6579300
-0.015602571 0.014683477 0.070817433 6579300
-0.015682105 0.014601934 0.01066152 6579300
-0.015591677 0.014694646 0.018554617 6579300
-0.015617094 0.014668587 0.048047345 6579300
-0.015627502 0.014657917 0.016279329 6579300
-0.015390677 0.014900722 0.013930251 6579300
-0.015705397 0.014578054 0.027397506 6579300
-0.015600661 0.014685435 0.042577572 6579300
-0.015588487 0.014697917 0.001556737 6579300
-0.015082846 0.015216326 0.0067565376 6579300
-0.01524561 0.015049453 0.003533216 6579300
-0.015368565 0.014923392 0.023402207 6579300
-0.01557669 0.014710012 0.054675885 6579300
-0.0156671 0.014617319 0.057025239 6579300
-0.014767851 0.015520347 0.073904544 6579300
-0.014489506 0.015778612 0.050238878 6579300
-0.014182451 0.016063519 0.028038478 6579300
-0.014321888 0.015934141 0.062712826 6579300
-0.01442429 0.015839126 0.046867035 6579300
-0.014353631 0.015904687 0.071823739 6579300
-0.014368508 0.015890883 0.051995005 6579300
-0.014776029 0.015512759 0.076306358 6579300
-0.01444007 0.015824484 0.045180414 6579300
-0.014667722 0.015613253 0.054428928 6579300
-0.014397074 0.015864378 0.039147709 6579300
-0.014729416 0.015556009 0.067670204 6579300
-0.014483174 0.015784489 0.036052864 6579300
-0.014242207 0.016008073 0.055540729 6579300
-0.014573322 0.015700845 0.048314627 6579300
-0.014452896 0.015812583 0.041738093 6579300
-0.01468527 0.01559697 0.078516312 6579300
-0.014409999 0.015852384 0.060520023 6579300
-0.014424908 0.015838552 0.040236875 6579300
-0.014256787 0.015994545 0.079518907 6579300
-0.014373245 0.015886489 0.064239308 6579300
-0.014754543 0.015532695 0.070494257 6579300
-0.014914108 0.015384641 0.082951821 6579300
-0.014793534 0.015496518 0.015375332 6579300
-0.014546992 0.015725274 0.005643819 6579300
-0.01443847 0.015825968 0.014268413 6579300
-0.01471375 0.015570546 0.027301997 6579300
-0.014809664 0.01548155 0.0045410204 6579300
-0.014609508 0.015667267 0.01890881 6579300
-0.014769547 0.015518773 0.043666959 6579300
-0.014736769 0.015549188 0.011220446 6579300
-0.014443206 0.015821574 0.023348944 6579300
-0.014888105 0.015408768 0.053138845 6579300
-0.014941247 0.015359459 0.034376666 6579300
-0.014878399 0.015417774 0.022423485 6579300
-0.014512291 0.015757471 0.0031363997 6579300
-0.014550663 0.015721869 0.012571255 6579300
-0.014391222 0.015869807 0.020115314 6579300
-0.014833502 0.015459431 0.00039407567 6579300
-0.014798373 0.015492027 0.025563166 6579300
-0.014588478 0.01568678 0.0015410677 6579300
-0.014919241 0.015379878 0.03117905 6579300
-0.014922775 0.015376599 0.00775008 6579300
-0.014650978 0.015628789 0.02434119 6579300
-0.014655094 0.01562497 0.0088846115 6579300
-0.013567875 0.01657952 0.053065311 6579300
-0.013911479 0.016291201 0.074837752 6579300
-0.013762704 0.016416039 0.045930427 6579300
-0.013378403 0.016738508 0.036220938 6579300
-0.013680226 0.016485246 0.064825885 6579300
-0.013604411 0.016548865 0.050322313 6579300
-0.013475501 0.016657032 0.063375473 6579300
-0.013425671 0.016698845 0.012653429 6579300
-0.013848613 0.016343951 0.070955835 6579300
-0.013938771 0.0162683 0.066017881 6579300
-0.013379639 0.01673747 0.055072032 6579300
-0.013504755 0.016632486 0.043589078 6579300
-0.014153166 0.0160884 0.081756406 6579300
-0.013362388 0.016751945 0.048456222 6579300
-0.013605338 0.016548086 0.082549527 6579300
-0.013521047 0.016618814 0.073150747 6579300
-0.013621888 0.016534198 0.060526412 6579300
-0.013694325 0.016473416 0.080939032 6579300
-0.013927257 0.016277961 0.061628193 6579300
-0.013964447 0.016246755 0.076304302 6579300
-0.013880515 0.016317183 0.026693664 6579300
-0.013969087 0.016242862 0.031538147 6579300
-0.014133193 0.01610516 0.077554733 6579300
-0.013616994 0.016538305 0.023804709 6579300
-0.014077128 0.016152205 0.035204336 6579300
-0.01404269 0.0161811 0.025212884 6579300
-0.013874556 0.016322182 0.0069420841 6579300
-0.013761188 0.016417312 0.0039394372 6579300
-0.013657172 0.016504591 0.014161362 6579300
-0.013818155 0.01636951 0.018424246 6579300
-0.013842182 0.016349349 0.038327072 6579300
-0.013990158 0.016225182 0.008285244 6579300
-0.014098786 0.016134031 0.034063317 6579300
-0.014046355 0.016178025 0.058925752 6579300
-0.013912653 0.016290216 0.0022452245 6579300
-0.014136429 0.016102444 0.05704727 6579300
-0.01410584 0.016128112 0.029653594 6579300
-0.013608895 0.0165451 0.020377062 6579300
-0.01388688 0.016311841 0.00090374477 6579300
-0.013979694 0.016233962 0.016468791 6579300
-0.013749971 0.016426723 0.011097738 6579300
-0.013879625 0.01631793 0.021430301 6579300
-0.013956017 0.016253829 0.0095548676 6579300
-0.013913785 0.016289266 0.032753102 6579300
-0.014069304 0.016158769 0.04277622 6579300
-0.012651039 0.017290922 0.079820164 6579300
-0.012742025 0.017222002 0.057761364 6579300
-0.012667982 0.017278088 0.074202105 6579300
-0.013032697 0.01700183 0.065678805 6579300
-0.012946975 0.01706676 0.053920023 6579300
-0.012756046 0.017211383 0.052379537 6579300
-0.012813057 0.0171682 0.045470476 6579300
-0.012645195 0.017295348 0.067490295 6579300
-0.012703817 0.017250944 0.078642175 6579300
-0.013074984 0.016969798 0.077376664 6579300
-0.012733367 0.017228561 0.041164044 6579300
-0.013050552 0.016988305 0.070639782 6579300
-0.012707639 0.017248049 0.081012018 6579300
-0.013069891 0.016973656 0.083531059 6579300
-0.013090259 0.016958227 0.072127849 6579300
-0.012928319 0.017080892 0.049470332 6579300
-0.01273674 0.017226007 0.044316113 6579300
-0.012931303 0.017078631 0.069227584 6579300
-0.013223059 0.016857637 0.075879984 6579300
-0.012573529 0.017349632 0.056064483 6579300
-0.012817102 0.017165136 0.060774237 6579300
-0.012126464 0.017659338 0.046423033 6579300
-0.012382071 0.017485067 0.06221902 6579300
-0.012454799 0.017435482 0.021068268 6579300
-0.012114855 0.017667254 0.051317915 6579300
-0.012451331 0.017437845 0.054995362 6579300
-0.012214832 0.017599089 0.042694747 6579300
-0.012182049 0.017621441 0.069703721 6579300
-0.01223617 0.017584542 0.071599364 6579300
-0.011689415 0.017957317 0.080385305 6579300
-0.011809975 0.01787512 0.073677242 6579300
-0.012112449 0.017668894 0.053572465 6579300
-0.011940093 0.017786406 0.075092003 6579300
-0.012437785 0.01744708 0.032544177 6579300
-0.012464179 0.017429085 0.030209545 6579300
-0.011993565 0.017749948 0.076157376 6579300
-0.011964358 0.017769862 0.06487374 6579300
-0.012351358 0.017506007 0.059652749 6579300
-0.012305568 0.017537227 0.05019509 6579300
-0.01248663 0.017413778 0.012638888 6579300
-0.012393931 0.017476982 0.048165474 6579300
-0.012326761 0.017522776 0.072720617 6579300
-0.01193407 0.017790513 0.06127074 6579300
-0.012437181 0.017447494 0.036229234 6579300
-0.012475051 0.017421674 0.082200617 6579300
-0.013305431 0.016795242 0.068156287 6579300
-0.01255135 0.017366434 0.00083532353 6579300
-0.013326093 0.016779592 0.027846333 6579300
-0.012945472 0.0170679 0.022030711 6579300
-0.013103912 0.016947888 0.042515527 6579300
-0.01299342 0.01703158 0.0062802429 6579300
-0.013043569 0.016993593 0.0030125189 6579300
-0.012972588 0.017047361 0.010215119 6579300
-0.013161734 0.01690409 0.0017664849 6579300
-0.01321924 0.01686053 0.024873666 6579300
-0.013303494 0.01679671 0.00023349386 6579300
-0.012709956 0.017246295 0.0051542204 6579300
-0.013169529 0.016898185 0.03146496 6579300
-0.013123857 0.016932778 0.0084599517 6579300
-0.013015047 0.017015198 0.01924129 6579300
-0.012756158 0.017211298 0.014387417 6579300
-0.01311081 0.016942661 0.029569626 6579300
-0.01302622 0.017006736 0.01605414 6579300
-0.013261059 0.016828854 0.058783781 6579300
-0.013341636 0.016767818 0.039644677 6579300
-0.01320202 0.016873574 0.037416458 6579300
-0.013161316 0.016904406 0.033642214 6579300
-0.01323425 0.01684916 0.017202064 6579300
-0.011996228 0.017748132 0.031477876 6579300
-0.012321351 0.017526465 0.011227014 6579300
-0.011657091 0.017979356 0.012548065 6579300
-0.011779288 0.017896041 0.063644737 6579300
-0.011828702 0.017862352 0.0013118695 6579300
-0.012169192 0.017630206 0.026730642 6579300
-0.011903277 0.017811507 0.01821048 6579300
-0.012307465 0.017535932 0.017016875 6579300
-0.011850359 0.017847586 0.019248629 6579300
-0.011895039 0.017817123 0.040615372 6579300
-0.011781753 0.017894361 0.049371544 6579300
-0.011791638 0.017887622 0.056569766 6579300
-0.011732997 0.017927602 0.057675678 6579300
-0.012260887 0.01756769 0.0070230411 6579300
-0.011820844 0.017867709 0.023189126 6579300
-0.011929098 0.017793903 0.0032460724 6579300
-0.011639735 0.017991189 0.03949172 6579300
-0.011796947 0.017884003 0.067124866 6579300
-0.011829555 0.01786177 0.013758428 6579300
-0.011869906 0.017834259 0.045335241 6579300
-0.01184275 0.017852774 0.034231443 6579300
-0.011921908 0.017798804 0.028125638 6579300
-0.011910846 0.017806347 0.005636916 6579300
-0.012005541 0.017741784 0.025191614 6579300
-0.012028968 0.01772581 0.037960764 6579300
-0.011923817 0.017797504 0.043762021 6579300
-0.012259818 0.017568419 0.0087013422 6579300
-0.012183472 0.01762047 0.015451696 6579300
-0.011890021 0.017820545 0.029296795 6579300
-0.010992485 0.018387688 0.082381971 6579300
-0.010901959 0.018443007 0.083551258 6579300
-0.01093495 0.018422848 0.064550176 6579300
-0.011133631 0.018301435 0.078892671 6579300
-0.011005576 0.018379688 0.067776531 6579300
-0.011027372 0.018366368 0.073145844 6579300
-0.01075247 0.018534359 0.081054173 6579300
-0.010970686 0.01840101 0.035310935 6579300
-0.011072757 0.018338634 0.033770453 6579300
-0.010835608 0.018483553 0.058125898 6579300
-0.011164528 0.018282555 0.059263036 6579300
-0.01127042 0.018217845 0.077743486 6579300
-0.010876562 0.018458527 0.022427609 6579300
-0.010721399 0.018553346 0.060286541 6579300
-0.010829521 0.018487273 0.062246434 6579300
-0.010776518 0.018519662 0.027873373 6579300
-0.010815733 0.018495699 0.029125771 6579300
-0.011112735 0.018314205 0.042203866 6579300
-0.0111805 0.018272793 0.044310711 6579300
-0.010925941 0.018428352 0.049660861 6579300
-0.010904836 0.018441251 0.071795791 6579300
-0.01072692 0.018549971 0.012764157 6579300
-0.010951129 0.018412961 0.053611971 6579300
-0.010897374 0.018445808 0.010292493 6579300
-0.011474472 0.018093152 0.069019623 6579300
-0.011271888 0.018216947 0.030805008 6579300
-0.0110481 0.018353703 0.0062190136 6579300
-0.011431345 0.018119505 0.050566211 6579300
-0.011362741 0.018161429 0.0043420005 6579300
-0.011417842 0.018127756 0.052508309 6579300
-0.011036362 0.018360876 0.0025010523 6579300
-0.011407413 0.01813413 0.047035448 6579300
-0.011305033 0.018196693 0.0072260699 6579300
-0.011438919 0.018114876 0.0084537957 6579300
-0.011253039 0.018228466 0.03213216 6579300
-0.011249286 0.018230759 0.036334071 6579300
-0.011524023 0.018062871 0.055461839 6579300
-0.011261605 0.018223232 0.024481129 6579300
-0.01128864 0.018206712 0.026754698 6579300
-0.011231695 0.01824151 0.015066841 6579300
-0.011346758 0.018171195 0.02021417 6579300
-0.010953035 0.018411795 0.013967713 6579300
-0.010076917 0.018904781 0.069169171 6579300
-0.0099755498 0.018959982 0.081583776 6579300
-0.01006908 0.018909048 0.082699396 6579300
-0.010276678 0.018795999 0.058914468 6579300
-0.010214952 0.018829612 0.072745174 6579300
-0.0098997792 0.019001244 0.078322485 6579300
-0.010061377 0.018913243 0.045036089 6579300
-0.010089044 0.018898178 0.063948333 6579300
-0.010087582 0.018898973 0.056805879 6579300
-0.010252254 0.018809298 0.065909222 6579300
-0.010170311 0.018853921 0.035966836 6579300
-0.010265401 0.01880214 0.052560113 6579300
-0.010201111 0.018837148 0.054137908 6579300
-0.010157543 0.018860875 0.046271276 6579300
-0.0098285712 0.019040022 0.080312558 6579300
-0.010626658 0.018605411 0.079770125 6579300
-0.010157901 0.018860679 0.075452156 6579300
-0.0098636542 0.019020917 0.077207267 6579300
-0.010317875 0.018773563 0.074163638 6579300
-0.0099996794 0.018946841 0.03389997 6579300
-0.010118888 0.018881924 0.062831759 6579300
-0.010430806 0.018712066 0.070153736 6579300
-0.010437669 0.018708328 0.043074965 6579300
-0.010152623 0.018863555 0.0077513405 6579300
-0.010324315 0.018770058 0.021181058 6579300
-0.010204902 0.018835085 0.023273285 6579300
-0.010342062 0.018760392 0.014750076 6579300
-0.010230926 0.018820914 0.0048881699 6579300
-0.010340194 0.018761409 0.030278869 6579300
-0.010652306 0.018591445 0.040449545 6579300
-0.01032979 0.018767074 0.03714785 6579300
-0.010395562 0.018731257 0.055296771 6579300
-0.010335425 0.018764006 0.025227632 6579300
-0.010642427 0.018596824 0.019227317 6579300
-0.010579249 0.018631229 0.048175778 6579300
-0.010360347 0.018750435 0.031531688 6579300
-0.010374139 0.018742925 0.038988315 6579300
-0.010422469 0.018716605 0.017617991 6579300
-0.01061848 0.018609865 0.051650081 6579300
-0.010113712 0.018884743 0.0021476909 6579300
-0.010493503 0.018677922 0.016083481 6579300
-0.0091815507 0.019354926 0.058121551 6579300
-0.0092418306 0.019325897 0.047651224 6579300
-0.0088517619 0.019513745 0.038298409 6579300
-0.0090523781 0.019417133 0.021196634 6579300
-0.0090256063 0.019430026 0.01978582 6579300
-0.0092870342 0.019304128 0.070789233 6579300
-0.0092196576 0.019336576 0.053392585 6579300
-0.0090873148 0.01940031 0.046010692 6579300
-0.0089460174 0.019468354 0.035093341 6579300
-0.0090815732 0.019403074 0.02897468 6579300
-0.0088729355 0.019503549 0.080927677 6579300
-0.0088647353 0.019507498 0.0659751 6579300
-0.0091751255 0.01935802 0.068895616 6579300
-0.0092246663 0.019334164 0.072329052 6579300
-0.0089918049 0.019446304 0.082905225 6579300
-0.0088573275 0.019511066 0.064370617 6579300
-0.0093260678 0.019285331 0.060121834 6579300
-0.0093838945 0.019257482 0.055403374 6579300
-0.0092121391 0.019340197 0.051233392 6579300
-0.009177166 0.019357039 0.073566496 6579300
-0.0095142564 0.019194704 0.06788189 6579300
-0.0095122987 0.019195646 0.009888554 6579300
-0.0096999994 0.019105254 0.024428004 6579300
-0.0096663069 0.019121479 0.041208412 6579300
-0.0092525799 0.019320721 0.012494553 6579300
-0.00966518 0.019122021 0.061633691 6579300
-0.0090562804 0.019415254 0.016019532 6579300
-0.0096235648 0.019142063 0.013672973 6579300
-0.0088799084 0.01950019 0.0023614618 6579300
-0.0094452854 0.019227918 0.039267849 6579300
-0.0092108799 0.019340802 0.0086772703 6579300
-0.0096835131 0.019113192 0.0033146881 6579300
-0.0089930324 0.019445714 0.0044805738 6579300
-0.0094101299 0.019244848 0.0054905736 6579300
-0.0094412314 0.01922987 0.031201443 6579300
-0.0095924009 0.019157071 0.066718459 6579300
-0.0095298085 0.019187214 0.011306425 6579300
-0.0092348829 0.019329242 0.036405761 6579300
-0.0093978001 0.019250786 0.04406675 6579300
-0.0093874419 0.019255774 0.027169637 6579300
-0.00955668 0.019174272 0.0064878482 6579300
-0.0095248288 0.019189611 0.017985269 6579300
-0.0093981903 0.019250598 0.025627408 6579300
-0.0094696172 0.0192162 0.00064940786 6579300
-0.0097121997 0.019099377 0.048784431 6579300
-0.0096733989 0.019118063 0.032433484 6579300
-0.0079618981 0.019891158 0.083405361 6579300
-0.0082598971 0.019765543 0.048476808 6579300
-0.0081749409 0.019801354 0.056194797 6579300
-0.0085365474 0.019648928 0.061252378 6579300
-0.0085060336 0.01966179 0.07953842 6579300
-0.0080912784 0.019836621 0.045819469 6579300
-0.0082247583 0.019780356 0.078327328 6579300
-0.0079451734 0.019898208 0.080439918 6579300
-0.0078991605 0.019917604 0.021912597 6579300
-0.0078665027 0.01993137 0.010748846 6579300
-0.0081724478 0.019802406 0.029941915 6579300
-0.0082529122 0.019768488 0.070847198 6579300
-0.008059945 0.019849829 0.040740721 6579300
-0.0080545982 0.019852083 0.063215442 6579300
-0.0078375917 0.019943558 0.066493802 6579300
-0.0080024563 0.019874062 0.019116711 6579300
-0.0079493849 0.019896433 0.032020599 6579300
-0.008216559 0.019783812 0.082204238 6579300
-0.0082508205 0.019769371 0.073219247 6579300
-0.0080023343 0.019874113 0.037060916 6579300
-0.0078669311 0.01993119 0.020787168 6579300
-0.0083078947 0.019745311 0.047234908 6579300
-0.0082828095 0.019755885 0.068168513 6579300
-0.0079991464 0.019875458 0.039682724 6579300
-0.0082016168 0.019790111 0.071927093 6579300
-0.0082424423 0.0197729 0.052972648 6579300
-0.0086601041 0.019596845 0.059441596 6579300
-0.0081941821 0.019793244 0.0035995694 6579300
-0.00838733 0.019711828 0.025805309 6579300
-0.0085159075 0.019657629 0.0068288972 6579300
-0.0085551785 0.019641073 0.02314065 6579300
-0.0081657656 0.019805223 0.028521005 6579300
-0.0087439623 0.019561496 0.057044201 6579300
-0.0085710762 0.019634373 0.049758252 6579300
-0.008344532 0.019729868 0.0052031754 6579300
-0.0086161643 0.019615367 0.054168999 6579300
-0.0081871552 0.019796206 0.014957804 6579300
-0.0080165425 0.019868124 0.0089322878 6579300
-0.0085969409 0.01962347 0.034156062 6579300
-0.0084901331 0.019668492 0.044677831 6579300
-0.0087975441 0.019538911 0.075165488 6579300
-0.0086340727 0.019607818 0.00013371241 6579300
-0.0083077177 0.019745385 0.017798994 6579300
-0.0084926756 0.019667421 0.013574827 6579300
-0.0083416048 0.019731101 0.043498207 6579300
-0.0084613124 0.019680642 0.042321846 6579300
-0.0085250717 0.019653765 0.0014243964 6579300
-0.0076148985 0.020025123 0.0059990971 6579300
-0.0075859814 0.020035647 0.014006418 6579300
-0.0072336528 0.020163886 0.0097810375 6579300
-0.007807164 0.019955141 0.0023220275 6579300
-0.0077407928 0.0199793 0.051818132 6579300
-0.0075706067 0.020041242 0.016904976 6579300
-0.0077668908 0.0199698 0.011843568 6579300
-0.0077891643 0.019961694 0.027457023 6579300
-0.0076328968 0.02001857 0.033778649 6579300
-0.0074213049 0.020095585 0.043588758 6579300
-0.0068776812 0.020293452 0.0040911245 6579300
-0.0077963625 0.019959074 0.024169378 6579300
-0.0069384901 0.020271318 0.0013051572 6579300
-0.0077970442 0.019958826 0.035733227 6579300
-0.007624025 0.0200218 0.050605446 6579300
-0.0075031514 0.020065796 0.041948128 6579300
-0.0071337945 0.020200232 0.025691833 6579300
-0.0072774091 0.020147961 0.01799012 6579300
-0.0072364756 0.020162858 0.012863455 6579300
-0.007355616 0.020119494 6.4501182e-05 6579300
-0.0075825709 0.020036889 0.05457364 6579300
-0.0078111426 0.019953694 0.075531639 6579300
-0.0070995875 0.020212682 0.040388029 6579300
-0.0071223988 0.02020438 0.053440738 6579300
-0.0070578251 0.020227883 0.064247675 6579300
-0.0069931257 0.020251432 0.049408745 6579300
-0.0069369045 0.020271895 0.071175642 6579300
-0.0071472023 0.020195352 0.055745192 6579300
-0.0072717424 0.020150023 0.05985079 6579300
-0.0075777937 0.020038627 0.069566429 6579300
-0.007003163 0.02024778 0.023272609 6579300
-0.0069568055 0.020264652 0.073175564 6579300
-0.00702248 0.020240748 0.065295756 6579300
-0.0068714391 0.020295724 0.031672172 6579300
-0.0073952461 0.02010507 0.056801889 6579300
-0.0071081519 0.020209566 0.08135695 6579300
-0.0068373461 0.020308131 0.034601673 6579300
-0.0069574132 0.02026443 0.057816561 6579300
-0.0068271151 0.020311857 0.018970851 6579300
-0.0069727302 0.020258855 0.046315331 6579300
-0.0068527288 0.020302534 0.005236825 6579300
-0.0075448803 0.020050608 0.076716833 6579300
-0.0071044029 0.020210929 0.067693055 6579300
-0.0068238508 0.020312997 0.060816884 6579300
-0.0067616301 0.020332189 0.048101917 6579300
-0.0062526315 0.020489192 0.0099841757 6579300
-0.0063573942 0.020456878 0.0064779739 6579300
-0.0066240905 0.020374613 0.059004072 6579300
-0.0066001727 0.020381991 0.011984441 6579300
-0.0066286749 0.020373199 0.02431269 6579300
-0.0065147965 0.020408327 0.0087972237 6579300
-0.0065733418 0.020390267 0.029562183 6579300
-0.0067818407 0.020325955 0.03814045 6579300
-0.0068057589 0.020318577 0.028198129 6579300
-0.0061894394 0.020508684 0.013893379 6579300
-0.006205318 0.020503787 0.02635962 6579300
-0.0062333741 0.020495132 0.030612126 6579300
-0.0059131775 0.020593898 0.0015029128 6579300
-0.0067890622 0.020323727 0.020389209 6579300
-0.0067727952 0.020328745 0.015675232 6579300
-0.0062539061 0.020488799 0.017917829 6579300
-0.006737161 0.020339737 0.022085583 6579300
-0.0067202528 0.020344952 0.052337535 6579300
-0.0061292704 0.020527244 0.00039328527 6579300
-0.0064681889 0.020422703 0.016709117 6579300
-0.0066131009 0.020378003 0.0024587247 6579300
-0.0065537239 0.020396318 0.045185797 6579300
-0.0066226111 0.020375069 0.03701964 6579300
-0.0064835572 0.020417962 0.075389594 6579300
-0.0060509639 0.020551398 0.025202913 6579300
-0.0058695846 0.020607345 0.067064762 6579300
-0.0060453825 0.020553119 0.073892452 6579300
-0.006370462 0.020452848 0.056326836 6579300
-0.0065104314 0.020409672 0.072234958 6579300
-0.0062526567 0.020489184 0.039723542 6579300
-0.0058434336 0.020615412 0.040919483 6579300
-0.0060353386 0.020556217 0.077805243 6579300
-0.0062772534 0.020481598 0.04200976 6579300
-0.0059514642 0.020582089 0.04622332 6579300
-0.0058884504 0.020601526 0.061312981 6579300
-0.0064053517 0.020442085 0.068547875 6579300
-0.0059336754 0.020587577 0.023336668 6579300
-0.0058357837 0.020617772 0.076609068 6579300
-0.006161971 0.020517157 0.083012693 6579300
-0.0058693308 0.020607423 0.065249801 6579300
-0.0058442373 0.020615164 0.027609773 6579300
-0.0061682612 0.020515217 0.047249861 6579300
-0.0063612242 0.020455696 0.062337007 6579300
-0.0063850228 0.020448355 0.070180476 6579300
-0.0058360775 0.020617681 0.063347407 6579300
-0.0061568767 0.020518728 0.054468393 6579300
-0.0063665607 0.020454051 0.079061888 6579300
-0.0060117519 0.020563493 0.050427821 6579300
-0.0058372938 0.020617306 0.071092062 6579300
-0.0066295331 0.020372935 0.080119334 6579300
-0.0053755762 0.020736681 0.021552673 6579300
-0.0055956468 0.020680644 0.0041203401 6579300
-0.0054625035 0.020714546 0.016826674 6579300
-0.0056758318 0.020660225 0.034113981 6579300
-0.0049861525 0.020835839 0.014523478 6579300
-0.0056279623 0.020672414 0.032712236 6579300
-0.0055018025 0.020704539 0.037455078 6579300
-0.0057804571 0.020633586 0.082005695 6579300
-0.0051954975 0.020782534 0.0087802541 6579300
-0.0053197462 0.020750897 0.031602435 6579300
-0.0057750088 0.020634972 0.043044064 6579300
-0.0056053456 0.020678174 0.055388641 6579300
-0.0053599929 0.020740649 0.035526171 6579300
-0.0054579922 0.020715695 0.005328848 6579300
-0.0053437781 0.020744778 0.020423755 6579300
-0.0056159827 0.020675465 0.057776649 6579300
-0.0054516336 0.020717314 0.012631885 6579300
-0.005115496 0.020802906 0.011094095 6579300
-0.0055470211 0.020693025 0.069207884 6579300
-0.0049041188 0.020856729 0.069993302 6579300
-0.005159989 0.020791575 0.056435052 6579300
-0.0049472079 0.020845756 0.030029874 6579300
-0.005278816 0.020761319 0.0450891 6579300
-0.0051001082 0.020806823 0.0600475 6579300
-0.0052342853 0.020772658 0.064279504 6579300
-0.0050210352 0.020826958 0.08376693 6579300
-0.005252081 0.020768126 0.075686984 6579300
-0.005148734 0.020794442 0.051357947 6579300
-0.0048583965 0.02086837 0.038473774 6579300
-0.0050038486 0.020831333 0.067976795 6579300
-0.0050138566 0.020828785 0.044010479 6579300
-0.0055425097 0.020694174 0.079820238 6579300
-0.0052875471 0.020759096 0.080961704 6579300
-0.0052020922 0.020780856 0.041893117 6579300
-0.0052087312 0.020779165 0.047667414 6579300
-0.0051575517 0.020792196 0.048865128 6579300
-0.0052526891 0.020767972 0.078763314 6579300
-0.0052124206 0.020778226 0.053711232 6579300
-0.0048206276 0.020877987 0.022656392 6579300
-0.0047299131 0.020899072 0.013306688 6579300
-0.0044372608 0.020958232 0.040970016 6579300
-0.0045114011 0.020943245 0.016173556 6579300
-0.0039788666 0.021050898 0.01410011 6579300
-0.00390488 0.021065855 0.0063518393 6579300
-0.0047331518 0.020898417 0.0017710344 6579300
-0.0043661771 0.020972602 0.010320551 6579300
-0.0045535294 0.020934729 0.032666676 6579300
-0.0047485591 0.020895302 0.026575606 6579300
-0.004686513 0.020907845 0.0074095931 6579300
-0.0045730765 0.020930776 0.039767437 6579300
-0.0046892166 0.0209073 0.028406082 6579300
-0.0047314744 0.020898756 0.073276572 6579300
-0.0046052695 0.020924268 0.054699108 6579300
-0.00426174 0.020993715 0.01730697 6579300
-0.0045308927 0.020939305 0.024638005 6579300
-0.0046156645 0.020922167 0.03473245 6579300
-0.0042915051 0.020987697 0.021100553 6579300
-0.003923161 0.02106216 0.0092239156 6579300
-0.004582522 0.020928867 0.066986807 6579300
-0.0045004189 0.020945465 0.061255816 6579300
-0.0046323645 0.020918792 0.003004198 6579300
-0.0039923587 0.021048171 0.01210091 6579300
-0.0042494764 0.020996194 0.0041922955 6579300
-0.0044492218 0.020955814 0.036595367 6579300
-0.004241378 0.020997832 0.030972814 6579300
-0.0046842783 0.020908298 0.065405965 6579300
-0.0046194796 0.020921396 0.018710718 6579300
-0.0037334615 0.021100508 0.065100372 6579300
-0.0041321767 0.021019906 0.052012749 6579300
-0.0042319503 0.020999737 0.042775519 6579300
-0.0039717271 0.021052342 0.043871831 6579300
-0.0044502188 0.020955613 0.063521862 6579300
-0.004304735 0.020985024 0.079442509 6579300
-0.0039436975 0.021058008 0.050727222 6579300
-0.0046663098 0.02091193 0.082141884 6579300
-0.0037321514 0.021100773 0.015487947 6579300
-0.0039640563 0.021053892 0.056437142 6579300
-0.0044272547 0.020960255 0.074507326 6579300
-0.0045751133 0.020930365 0.07774476 6579300
-0.0039350968 0.021059746 0.046431694 6579300
-0.004096719 0.021027075 0.058679838 6579300
-0.0038290515 0.021081185 0.037580363 6579300
-0.0039502466 0.021056684 0.020124484 6579300
-0.0037991209 0.021087235 0.052996475 6579300
-0.0037345835 0.021100281 0.049008641 6579300
-0.0043966575 0.02096644 0.071699098 6579300
-0.0030449713 0.021204922 0.043326192 6579300
-0.0027958308 0.021242475 0.027400559 6579300
-0.0027671473 0.021246798 0.034705378 6579300
-0.0029712641 0.021216033 0.038408354 6579300
-0.0027742495 0.021245727 0.037287373 6579300
-0.0036051902 0.021120481 0.076345779 6579300
-0.0030368818 0.021206142 0.070145369 6579300
-0.0034428071 0.021144956 0.081981353 6579300
-0.002670645 0.021261344 0.0056350799 6579300
-0.0029620915 0.021217415 0.05800366 6579300
-0.0030764982 0.021200171 0.051282514 6579300
-0.0027024532 0.021256549 0.0075228489 6579300
-0.0028352498 0.021236533 0.046886891 6579300
-0.0028604977 0.021232728 0.056888781 6579300
-0.0030136534 0.021209642 0.071242638 6579300
-0.0034703719 0.021140803 0.072194643 6579300
-0.002708958 0.02125557 0.036122981 6579300
-0.0030298536 0.021207202 0.078962751 6579300
-0.0028194012 0.021238923 0.068413392 6579300
-0.0034944944 0.021137167 0.066186048 6579300
-0.0034377752 0.021145716 0.073741227 6579300
-0.0029800027 0.021214716 0.077926785 6579300
-0.0032300299 0.021177029 0.063755594 6579300
-0.0030648874 0.021201922 0.08063677 6579300
-0.0034199441 0.021148404 0.061076801 6579300
-0.0027017468 0.021256657 0.075048693 6579300
-0.0031357929 0.021191234 0.045411155 6579300
-0.0033858905 0.021153536 0.031700265 6579300
-0.0030700914 0.021201136 0.030434338 6579300
-0.0037165587 0.021103695 0.026566789 6579300
-0.0031287745 0.021192292 0.010269534 6579300
-0.0033744236 0.021155264 0.055416603 6579300
-0.0034466099 0.021144385 0.047857199 6579300
-0.003679456 0.021109287 0.05991203 6579300
-0.0033362608 0.021161016 0.022029147 6579300
-0.0032153986 0.021179235 0.025230125 6579300
-0.0032910977 0.021167824 0.019236475 6579300
-0.0028751453 0.021230521 0.0088894395 6579300
-0.0036984102 0.021106431 0.02929564 6579300
-0.002974425 0.021215556 0.01132177 6579300
-0.0030396017 0.021205733 0.014744082 6579300
-0.0029330831 0.021221787 0.013670046 6579300
-0.0032821442 0.021169174 0.039685931 6579300
-0.0027123257 0.021255061 0.0010955821 6579300
-0.0027688511 0.021246541 0.0039165691 6579300
-0.0032048807 0.02118082 0.041135468 6579300
-0.0031221686 0.021193286 0.017349653 6579300
-0.0030858598 0.021198759 0.032949455 6579300
-0.0036291913 0.021116864 0.0052479338 6579300
-0.0035360614 0.021130901 0.069172777 6579300
-0.0032936989 0.021167433 0.023600098 6579300
-0.0036917699 0.021107432 0.067874834 6579300
-0.0031228911 0.021193178 0.0020675876 6579300
-0.0017845216 0.021350322 0.067713551 6579300
-0.0020637321 0.021322384 0.044467397 6579300
-0.0020387666 0.021324882 0.072563566 6579300
-0.0025382235 0.021274906 0.083757937 6579300
-0.0020842627 0.02132033 0.055110183 6579300
-0.0017997191 0.021348802 0.032381617 6579300
-0.0023170759 0.021297034 0.079801373 6579300
-0.0023316776 0.021295574 0.066056632 6579300
-0.0016622972 0.021362552 0.068897627 6579300
-0.0019745394 0.02133131 0.045569085 6579300
-0.0020303058 0.02132573 0.063587867 6579300
-0.0017821512 0.021350561 0.060805935 6579300
-0.0016114309 0.021367643 0.0095894169 6579300
-0.0016452918 0.021364255 0.033560839 6579300
-0.0018207782 0.021346696 0.058796424 6579300
-0.002178675 0.021310883 0.050162189 6579300
-0.0024387718 0.021284858 0.081758067 6579300
-0.0022573434 0.021303011 0.053334348 6579300
-0.0017008869 0.021358691 0.075187042 6579300
-0.0016436507 0.021364419 0.037850525 6579300
-0.0025575291 0.021272974 0.018350909 6579300
-0.0024161823 0.021287117 0.04193059 6579300
-0.0023196677 0.021296775 0.02013969 6579300
-0.0019097155 0.021337796 0.017116107 6579300
-0.0023677943 0.02129196 0.015959041 6579300
-0.0021116375 0.021317592 0.012536554 6579300
-0.0020252934 0.021326231 0.022440318 6579300
-0.0024987562 0.021278854 0.061676856 6579300
-0.0022998087 0.021298762 0.0027754621 6579300
-0.0026380627 0.021264916 0.059787598 6579300
-0.00089745305 0.021403782 0.035400655 6579300
-0.001008909 0.021398218 0.049540613 6579300
-0.00084614934 0.021406341 0.042493507 6579300
-0.00066247984 0.021415509 0.015394592 6579300
-0.0012801725 0.021384681 0.070969179 6579300
-0.00080199959 0.021408545 0.073714413 6579300
-0.00099535694 0.021398894 0.072150245 6579300
-0.0011668867 0.021390334 0.079409793 6579300
-0.00087657123 0.021404823 0.06398043 6579300
-0.00062902668 0.021417178 0.02091882 6579300
-0.00076848111 0.021410218 0.02463227 6579300
-0.00053516333 0.021421863 0.083996467 6579300
-0.00091479346 0.021402916 0.066915296 6579300
-0.0007617455 0.021410555 0.070106588 6579300
-0.00077542476 0.021409871 0.046712782 6579300
-0.00085326697 0.021405987 0.031981554 6579300
-0.0014279346 0.021377306 0.083081909 6579300
-0.00070047315 0.021413613 0.051649775 6579300
-0.00103708 0.021396812 0.041287817 6579300
-0.00092686201 0.021402314 0.045637812 6579300
-0.0010788996 0.021394726 0.058014173 6579300
-0.0012134463 0.021388011 0.081207916 6579300
-0.00095222803 0.021401048 0.026947387 6579300
-0.0013158477 0.0213829 0.019262545 6579300
-0.0015985977 0.021368789 0.021285236 6579300
-0.0014565606 0.021375878 0.039936673 6579300
-0.00085696188 0.021405803 0.0031046155 6579300
-0.001151596 0.021391097 0.0041565886 6579300
-0.0015818789 0.021369623 0.047833622 6579300
-0.0016001321 0.021368712 0.026115764 6579300
-0.0015770965 0.021369861 0.043494359 6579300
-0.0013175292 0.021382816 0.00040899261 6579300
-0.0015220236 0.021372611 0.056012414 6579300
-0.0015216982 0.021372626 0.062637754 6579300
-0.0013401677 0.021381686 0.05426234 6579300
-0.0013677238 0.021380311 0.064868912 6579300
-0.0010961129 0.021393867 0.0067528216 6579300
-0.0015862322 0.021369405 0.036679801 6579300
-0.0015673904 0.021370346 0.030264862 6579300
-0.0013069493 0.021383345 0.018231077 6579300
-0.0011915368 0.021389104 0.038830981 6579300
-0.0014343061 0.021376988 0.052568212 6579300
-0.0015420966 0.021371609 0.077322558 6579300
-0.0013331854 0.021382036 0.028021075 6579300
-0.0014049418 0.021378454 0.023651682 6579300
-0.0015702794 0.021370202 0.0085923215 6579300
-0.0015127482 0.021373073 0.013518502 6579300
-0.0011042841 0.021393459 0.016455417 6579300
0.00011300202 0.021421909 0.07215336 6579300
0.00047095059 0.021421909 0.056337155 6579300
8.0154779e-05 0.021421909 0.063454837 6579300
0.00027155041 0.021421909 0.083147116 6579300
0.00016117265 0.021421909 0.0689601 6579300
-0.00016445348 0.021421909 0.057278048 6579300
0.00024525277 0.021421909 0.047010485 6579300
5.6808863e-06 0.021421909 0.067452207 6579300
-0.00050803227 0.021421909 0.082335755 6579300
-7.4646705e-05 0.021421909 0.050663393 6579300
0.0004591005 0.021421909 0.041481208 6579300
0.00025717961 0.021421909 0.073536329 6579300
0.000137796 0.021421909 0.074582726 6579300
0.0003103574 0.021421909 0.055231757 6579300
-0.00027286058 0.021421909 0.080078602 6579300
-0.00013401748 0.021421909 0.058927774 6579300
-0.00015068974 0.021421909 0.070994698 6579300
0.00034220447 0.021421909 0.053869378 6579300
0.00051177468 0.021421909 0.042573784 6579300
5.5362107e-05 0.021421909 0.076718554 6579300
-0.00031176425 0.021421909 0.077656046 6579300
0.00032155629 0.021421909 0.017001972 6579300
-0.00039057911 0.021421909 0.061182361 6579300
-1.5374169e-05 0.021421909 9.8555152e-05 6579300
-0.0004653527 0.021421909 0.008993445 6579300
0.00010701285 0.021421909 0.027762949 6579300
-0.00035463567 0.021421909 0.040545881 6579300
4.9145252e-05 0.021421909 0.018299984 6579300
-0.00051830814 0.021421909 0.0018334211 6579300
-0.00024724432 0.021421909 0.033486586 6579300
-0.00046745624 0.021421909 0.036623184 6579300
-0.00018448733 0.021421909 0.022772329 6579300
1.5419837e-05 0.021421909 0.0044038729 6579300
-0.00044680131 0.021421909 0.011421772 6579300
-0.00021292052 0.021421909 0.030863432 6579300
-0.00030970416 0.021421909 0.065394565 6579300
-0.00040842517 0.021421909 0.052797422 6579300
-0.00028345114 0.021421909 0.043796554 6579300
8.6766966e-05 0.021421909 0.0060780733 6579300
1.8143042e-05 0.021421909 0.039520018 6579300
-0.00025740633 0.021421909 0.04853341 6579300
-0.00044449337 0.021421909 0.0077349176 6579300
-0.00045032974 0.021421909 0.025828416 6579300
-0.00030039894 0.021421909 0.060037881 6579300
0.00014712042 0.021421909 0.019714057 6579300
-0.00031304677 0.021421909 0.06236941 6579300
1.7104652e-05 0.021421909 0.01260792 6579300
0.00030013523 0.021421909 0.0034156181 6579300
0.00016802269 0.021421909 0.010587949 6579300
-0.00049958617 0.021421909 0.075644627 6579300
-0.00052771572 0.021421909 0.029004201 6579300
0.001453278 0.021376042 0.048481531 6579300
0.0015115835 0.02137313 0.083127551 6579300
0.0014717991 0.021375116 0.037522063 6579300
0.0010419493 0.02139657 0.07093852 6579300
0.0015834826 0.021369543 0.067592509 6579300
0.0013024482 0.021383569 0.057838347 6579300
0.0011935481 0.021389004 0.069817796 6579300
0.00080329221 0.021408482 0.066748179 6579300
0.0013756217 0.021379916 0.054466974 6579300
0.0015667289 0.021370379 0.061420519 6579300
0.0012782414 0.021384778 0.047323905 6579300
0.0011226259 0.021392543 0.058854986 6579300
0.0014686688 0.021375272 0.059932742 6579300
0.0013578907 0.021380803 0.03032225 6579300
0.0010045097 0.021398438 0.082193896 6579300
0.0011235939 0.021392494 0.064018458 6579300
0.0012122395 0.021388071 0.031447787 6579300
0.0014835391 0.021374531 0.02641784 6579300
0.0014341525 0.021376995 0.033531606 6579300
0.0014677529 0.021375319 0.073848166 6579300
0.0010816089 0.02139459 0.062842004 6579300
0.00073288719 0.021411994 0.079005241 6579300
0.00099824299 0.021398751 0.072618067 6579300
0.0013169434 0.021382846 0.075175583 6579300
0.0013811005 0.021379644 0.0058643669 6579300
0.0010565892 0.02139584 0.040023521 6579300
0.0010098155 0.021398174 0.035503559 6579300
0.00062324275 0.021417467 0.015240205 6579300
0.001071578 0.021395091 0.022196041 6579300
0.00083241827 0.021407027 0.050036151 6579300
0.0013703408 0.02138018 0.011131512 6579300
0.0012044517 0.02138846 0.018009132 6579300
0.0014191822 0.021377742 0.0069750301 6579300
0.0013708707 0.021380154 0.014133862 6579300
0.00085589348 0.021405855 0.023414185 6579300
0.0012241883 0.021387475 0.019462314 6579300
0.0011161899 0.021392865 0.0046095704 6579300
0.00076841243 0.021410221 0.036804479 6579300
0.00086734322 0.021405283 0.0086385822 6579300
0.00090209168 0.021403549 0.045800231 6579300
0.00060832163 0.021418212 0.051968638 6579300
0.00067531044 0.021414869 0.038516961 6579300
0.0011492255 0.021391217 0.028142175 6579300
0.0005557143 0.021420836 0.024775606 6579300
0.00091416534 0.021402948 0.0017333323 6579300
0.0013480248 0.021381294 0.013027586 6579300
0.00062040135 0.021417608 0.020879831 6579300
0.0025884483 0.02126988 0.071515061 6579300
0.0021656603 0.021312185 0.079353355 6579300
0.0024726477 0.021281468 0.064023331 6579300
0.0016733048 0.021361452 0.08072377 6579300
0.0022943763 0.021299306 0.04705967 6579300
0.0021341636 0.021315336 0.077182487 6579300
0.0022174967 0.021306999 0.069208533 6579300
0.002333153 0.021295426 0.058353867 6579300
0.0022795692 0.021300787 0.05338189 6579300
0.0026205895 0.021266663 0.017991159 6579300
0.0022124585 0.021307502 0.082043417 6579300
0.0026447284 0.021264249 0.073578142 6579300
0.0023394355 0.021294797 0.030808492 6579300
